-3.732040680569843616e-01 -1.650155265909190871e-01 9.132876916062759864e-02 -4.727600000000000136e-01 8.760270000000000001e-01 -9.526600000000000346e-02
-3.729930812348853930e-01 -1.667517376318765898e-01 8.518053058365054886e-02 -4.439279999999999893e-01 8.618980000000000530e-01 2.450710000000000111e-01
-3.729716474095714496e-01 -1.663177492169226890e-01 7.880315159977235862e-02 -3.703239999999999865e-01 7.462309999999999777e-01 5.531719999999999970e-01
-3.731499030170813969e-01 -1.636569374948192990e-01 7.274126165783621756e-02 -3.540860000000000118e-01 4.304209999999999980e-01 8.302779999999999605e-01
-3.735530987903029065e-01 -1.586277756946380679e-01 6.835624818933676294e-02 -2.695409999999999751e-01 1.142529999999999935e-01 9.561870000000000092e-01
-3.741862344948241326e-01 -1.512019354621764455e-01 6.592051353780774281e-02 -1.995929999999999926e-01 -2.512730000000000241e-01 9.471140000000000114e-01
-3.746939872498339374e-01 -1.454485743189595781e-01 6.586361040064957206e-02 -1.452499999999999902e-01 -6.214520000000000044e-01 7.698700000000000543e-01
-3.752623231447129171e-01 -1.393554755445083337e-01 6.907422657540852884e-02 -1.031730000000000008e-01 -8.628460000000000019e-01 4.948250000000000148e-01
-3.757526123154287800e-01 -1.343922964119836361e-01 7.460643707951504500e-02 -9.834760000000000169e-01 -1.764330000000000065e-01 4.058400000000000202e-02
-3.861290206739312891e-01 -1.296406845781760131e-01 8.107855422842415172e-02 -9.860710000000000308e-01 -1.649789999999999868e-01 2.111499999999999835e-02
-3.847798177752223547e-01 -1.302702771848489594e-01 8.970437105918464826e-02 -9.968399999999999483e-01 -7.340000000000000691e-02 -3.038099999999999828e-02
-3.851957785578478122e-01 -1.344685031347911675e-01 9.740188530131017874e-02 -9.892429999999999835e-01 -1.272520000000000040e-01 7.215000000000000580e-02
-3.851595151977995624e-01 -1.410667863290267776e-01 1.029343805675312085e-01 -9.740579999999999794e-01 -2.262699999999999989e-01 3.605999999999999830e-03
-3.824556770154274865e-01 -1.488851820887761579e-01 1.051740510270022660e-01 -9.864969999999999573e-01 -1.591370000000000007e-01 3.873399999999999760e-02
-3.809013303941623518e-01 -1.570926833732717021e-01 1.046795178055407588e-01 -9.792419999999999458e-01 -2.910099999999999840e-02 -2.005949999999999955e-01
-3.796910475977948729e-01 -1.635059533359714268e-01 1.005228945052945022e-01 -9.974499999999999478e-01 -3.997300000000000159e-02 -5.912099999999999994e-02
-3.784363090543914065e-01 -1.701683463393409701e-01 9.397005277310668814e-02 -9.964060000000000139e-01 7.692000000000000226e-02 -3.547600000000000059e-02
-3.779738882375392461e-01 -1.726591167457001141e-01 8.570225858705099453e-02 -9.961759999999999504e-01 -7.124400000000000177e-02 5.057600000000000290e-02
-3.781230433474205843e-01 -1.719235050133046672e-01 7.708769533600949575e-02 -9.958460000000000090e-01 1.126899999999999950e-02 9.035200000000000176e-02
-3.791099685982900480e-01 -1.667614852581051910e-01 6.920890810319876851e-02 -9.745080000000000409e-01 -2.223590000000000011e-01 -2.984200000000000047e-02
-3.801434031691367510e-01 -1.613390286443773247e-01 6.383519509680850301e-02 -9.851250000000000284e-01 -1.677289999999999892e-01 -3.735800000000000232e-02
-3.816472318960429377e-01 -1.534146192350999416e-01 6.160677274086191757e-02 -9.834230000000000471e-01 -1.662990000000000024e-01 -7.227100000000000191e-02
-3.832015730411135745e-01 -1.452071179506043974e-01 6.210130048612892001e-02 -9.875359999999999694e-01 -1.408159999999999967e-01 -7.030500000000000638e-02
-3.846146995583429873e-01 -1.377240405331194295e-01 6.608790437540895679e-02 -9.931119999999999948e-01 -1.090649999999999953e-01 -4.282500000000000195e-02
-3.856665560475229793e-01 -1.321314549845351294e-01 7.281076551856296986e-02 6.844200000000000284e-02 4.868799999999999795e-01 -8.707829999999999737e-01
-3.136023662917462596e-01 -1.289885738596760478e-01 7.960326195111198933e-02 4.384099999999999803e-02 8.376749999999999474e-01 -5.444059999999999455e-01
-3.134394823622271842e-01 -1.305105561713843787e-01 7.657064400272096949e-02 6.545499999999999929e-02 6.313170000000000170e-01 -7.727579999999999449e-01
-3.130641768476473685e-01 -1.342754179925468860e-01 7.201303731183537893e-02 9.831399999999999861e-02 2.927569999999999895e-01 -9.511190000000000477e-01
-3.125722776757454135e-01 -1.395523228323812814e-01 6.926679147917431945e-02 1.329569999999999919e-01 -9.201600000000000057e-02 -9.868409999999999682e-01
-3.120429432381699453e-01 -1.454821543436976838e-01 6.868163271475923037e-02 1.637059999999999904e-01 -4.634989999999999943e-01 -8.708439999999999515e-01
-3.115533440679623678e-01 -1.512171264257484438e-01 7.049841500554909768e-02 1.880070000000000074e-01 -7.581980000000000386e-01 -6.243309999999999693e-01
-3.111874576079405319e-01 -1.557603581060440778e-01 7.428152898301500218e-02 2.029130000000000100e-01 -9.376290000000000457e-01 -2.822720000000000229e-01
-3.109940384178311312e-01 -1.585060946526156700e-01 7.952656237079851198e-02 2.017049999999999954e-01 -9.738459999999999894e-01 1.045859999999999984e-01
-3.109989231833344414e-01 -1.590882250814665000e-01 8.553417774894148118e-02 1.878849999999999965e-01 -8.585580000000000434e-01 4.770499999999999741e-01
-3.112123140548234690e-01 -1.572831399421509568e-01 9.128974579854606808e-02 1.640300000000000091e-01 -6.132180000000000408e-01 7.726960000000000495e-01
-3.115876469503758295e-01 -1.535182835971829474e-01 9.584736344182066825e-02 1.314099999999999990e-01 -2.735799999999999899e-01 9.528299999999999548e-01
-3.120748037378318074e-01 -1.482956314163636768e-01 9.859933189774518214e-02 9.613199999999999523e-02 1.141410000000000063e-01 9.888029999999999875e-01
-3.126088531788807634e-01 -1.423115527222266474e-01 9.917875708650783495e-02 6.366199999999999637e-02 4.815590000000000148e-01 8.740980000000000416e-01
-3.130937318694203553e-01 -1.366308332991910124e-01 9.736770837137039003e-02 4.108900000000000052e-02 7.771559999999999580e-01 6.279649999999999954e-01
-3.134643661900827216e-01 -1.320333434836857556e-01 9.357887724683559838e-02 2.834400000000000114e-02 9.323510000000000408e-01 3.604410000000000114e-01
-3.136577634754140753e-01 -1.292876124133086613e-01 8.833383838285756295e-02 3.626399999999999763e-02 6.549679999999999946e-01 7.547859999999999570e-01
-3.137034075566587643e-01 -1.284223901092396702e-01 8.504917310592816082e-02 -7.287120000000000264e-01 6.796269999999999811e-01 -8.418000000000000482e-02
-5.111227660891534130e-01 -1.562903387345718209e-01 2.357158824342167336e-01 -7.198569999999999691e-01 5.186229999999999452e-01 4.613410000000000011e-01
-5.110870448723616732e-01 -1.569059999024101648e-01 2.377078755683687261e-01 -9.960769999999999902e-01 -8.799200000000000077e-02 -9.334999999999999548e-03
-5.125221911677176889e-01 -1.591476472680994902e-01 2.359869759672624800e-01 -6.803639999999999688e-01 1.792600000000000096e-02 7.326549999999999452e-01
-5.109363454756282730e-01 -1.587199948101942204e-01 2.387252594131053507e-01 -6.303260000000000529e-01 -5.253520000000000412e-01 5.715719999999999690e-01
-5.107553079613070812e-01 -1.607038503193036760e-01 2.381088589590080740e-01 -6.023500000000000520e-01 -7.950249999999999817e-01 7.147799999999999987e-02
-5.106488562162182498e-01 -1.617158346362529697e-01 2.362887307133723358e-01 -6.109240000000000226e-01 -6.340590000000000392e-01 -4.740690000000000182e-01
-5.106845774330099896e-01 -1.611001734684146258e-01 2.342967430554148134e-01 -6.529409999999999936e-01 -1.357099999999999973e-01 -7.451520000000000366e-01
-5.108352768297433899e-01 -1.592861785606305702e-01 2.332793537344836632e-01 -7.004559999999999675e-01 4.099209999999999798e-01 -5.842309999999999448e-01
-5.110163088678700838e-01 -1.573023285277156125e-01 2.338957596647754378e-01 -8.907700000000000340e-02 -9.896540000000000337e-01 1.124730000000000035e-01
-5.178570834312232751e-01 -1.421233852026527744e-01 2.341180712571220290e-01 -1.164290000000000047e-01 -9.423010000000000552e-01 -3.138679999999999803e-01
-5.178462624708706219e-01 -1.430150027642621557e-01 2.413696042183157975e-01 -1.223400000000000043e-01 -7.613940000000000152e-01 -6.366410000000000124e-01
-5.175782848925013502e-01 -1.467325885982158906e-01 2.478183927786103691e-01 -1.645800000000000041e-01 -4.566979999999999928e-01 -8.742659999999999876e-01
-5.171514155304109961e-01 -1.520330246458617418e-01 2.522319974586489377e-01 -2.597650000000000237e-01 -8.465699999999999614e-02 -9.619539999999999758e-01
-5.166638863617284416e-01 -1.576731764199638952e-01 2.533781047315483703e-01 -3.332629999999999759e-01 2.611680000000000113e-01 -9.059399999999999675e-01
-5.159700853744203508e-01 -1.654387214264928241e-01 2.525463310235492864e-01 -3.744339999999999891e-01 5.788510000000000044e-01 -7.243829999999999991e-01
-5.154254449731880960e-01 -1.712605404772849782e-01 2.493070360181390555e-01 -4.579170000000000185e-01 7.906499999999999639e-01 -4.064300000000000135e-01
-5.150349649236197758e-01 -1.751103216467211898e-01 2.439325344397392514e-01 -4.727609999999999868e-01 8.760259999999999714e-01 -9.526500000000000246e-02
-5.148239781015208072e-01 -1.768465217352896413e-01 2.377843122913457230e-01 -4.439270000000000160e-01 8.618989999999999707e-01 2.450680000000000081e-01
-5.148025442762068637e-01 -1.764125387965302938e-01 2.314069387836620584e-01 -3.703230000000000133e-01 7.462320000000000064e-01 5.531709999999999683e-01
-5.149807779789388196e-01 -1.737517270744269038e-01 2.253450105083643351e-01 -3.540840000000000098e-01 4.304220000000000268e-01 8.302779999999999605e-01
-5.153839573235768912e-01 -1.687225652742456727e-01 2.209600298970319787e-01 -2.695420000000000038e-01 1.142520000000000063e-01 9.561870000000000092e-01
-5.160171313614596578e-01 -1.612967305179785205e-01 2.185242733407248839e-01 -1.995919999999999916e-01 -2.512739999999999974e-01 9.471140000000000114e-01
-5.165248403069133687e-01 -1.555433419937891082e-01 2.184673866321502345e-01 -1.452509999999999912e-01 -6.214530000000000332e-01 7.698690000000000255e-01
-5.170932200113483868e-01 -1.494502541717268873e-01 2.216779973307147211e-01 -1.031730000000000008e-01 -8.628460000000000019e-01 4.948250000000000148e-01
-5.175835091820643052e-01 -1.444870695630076640e-01 2.272102406919882522e-01 -9.906249999999999778e-01 -1.327149999999999996e-01 3.239500000000000018e-02
-5.279598737310106094e-01 -1.397354577292000688e-01 2.336823249837303440e-01 -9.860700000000000021e-01 -1.649829999999999908e-01 2.111400000000000082e-02
-5.266106708323018415e-01 -1.403650612882620385e-01 2.423081308621017893e-01 -9.968390000000000306e-01 -7.340399999999999703e-02 -3.038400000000000128e-02
-5.270266316149272434e-01 -1.445632872382042466e-01 2.500056451042272920e-01 -9.892429999999999835e-01 -1.272490000000000010e-01 7.215000000000000580e-02
-5.269904120644350876e-01 -1.511615485276618098e-01 2.555381567990319125e-01 -9.740569999999999506e-01 -2.262730000000000019e-01 3.601000000000000034e-03
-5.242865300725069178e-01 -1.589799497636056880e-01 2.577778163061139050e-01 -9.864969999999999573e-01 -1.591329999999999967e-01 3.872899999999999954e-02
-5.227321889274363365e-01 -1.671874565242957578e-01 2.572832885608469233e-01 -9.792419999999999458e-01 -2.909700000000000134e-02 -2.005969999999999975e-01
-5.215219444644303426e-01 -1.736007210108009846e-01 2.531266543082116294e-01 -9.974499999999999478e-01 -3.996899999999999759e-02 -5.912599999999999800e-02
-5.202672059210268207e-01 -1.802631140141705002e-01 2.465738070998293174e-01 -9.964049999999999851e-01 7.693200000000000038e-02 -3.547700000000000159e-02
-5.198047412946186219e-01 -1.827538844205296442e-01 2.383060402947461964e-01 -9.961759999999999504e-01 -7.123699999999999477e-02 5.057799999999999796e-02
-5.199539402140560540e-01 -1.820182617357451460e-01 2.296914934722882329e-01 -9.958470000000000377e-01 1.126100000000000018e-02 9.034599999999999576e-02
-5.209408709411200711e-01 -1.768562529329347488e-01 2.218126514775323743e-01 -9.745080000000000409e-01 -2.223580000000000001e-01 -2.983999999999999847e-02
-5.219743000357722762e-01 -1.714338017954013804e-01 2.164389658521146398e-01 -9.851259999999999462e-01 -1.677259999999999862e-01 -3.735100000000000225e-02
-5.234780849531224245e-01 -1.635093869099294994e-01 2.142105434961680821e-01 -9.834230000000000471e-01 -1.663020000000000054e-01 -7.227000000000000091e-02
-5.250324315743875037e-01 -1.553018856254339553e-01 2.147050712414350915e-01 -9.875359999999999694e-01 -1.408200000000000007e-01 -7.030899999999999650e-02
-5.264455964249785680e-01 -1.478188191603380108e-01 2.186916641783260562e-01 -9.939799999999999747e-01 -1.031109999999999943e-01 -3.705100000000000060e-02
-5.274974529141585045e-01 -1.422262226593646872e-01 2.254145746072307166e-01 5.768100000000000310e-02 4.793200000000000238e-01 -8.757430000000000492e-01
-4.554332193488256353e-01 -1.390833415345055779e-01 2.322070272302236282e-01 4.384099999999999803e-02 8.376740000000000297e-01 -5.444080000000000030e-01
-4.552703628002791048e-01 -1.406053347986029323e-01 2.291744257104161575e-01 6.545499999999999929e-02 6.313180000000000458e-01 -7.727570000000000272e-01
-4.548950518095048468e-01 -1.443701911435709695e-01 2.246168244957250648e-01 9.831399999999999861e-02 2.927560000000000162e-01 -9.511190000000000477e-01
-4.544031745423808832e-01 -1.496471014595998350e-01 2.218705622344804562e-01 1.329569999999999919e-01 -9.201700000000000157e-02 -9.868409999999999682e-01
-4.538738236762218659e-01 -1.555769329709162652e-01 2.212854308510379120e-01 1.637059999999999904e-01 -4.634989999999999943e-01 -8.708439999999999515e-01
-4.533842409345977820e-01 -1.613119050529670251e-01 2.231021967132442718e-01 1.880080000000000084e-01 -7.581980000000000386e-01 -6.243309999999999693e-01
-4.530183325697979546e-01 -1.658551422094571570e-01 2.268853161669046603e-01 2.029130000000000100e-01 -9.376290000000000457e-01 -2.822729999999999961e-01
-4.528249352844666009e-01 -1.686008732798342513e-01 2.321303386022991466e-01 2.017049999999999954e-01 -9.738459999999999894e-01 1.045859999999999984e-01
-4.528298200499698556e-01 -1.691830037086850536e-01 2.381379594566366831e-01 1.878849999999999965e-01 -8.585580000000000434e-01 4.770510000000000028e-01
-4.530431944928754451e-01 -1.673779185693695382e-01 2.438935165538522187e-01 1.640300000000000091e-01 -6.132180000000000408e-01 7.726950000000000207e-01
-4.534185054836497586e-01 -1.636130677005960266e-01 2.484511122923487858e-01 1.314110000000000000e-01 -2.735799999999999899e-01 9.528299999999999548e-01
-4.539056567949111831e-01 -1.583904155197767283e-01 2.512031026530513467e-01 9.613199999999999523e-02 1.141400000000000053e-01 9.888029999999999875e-01
-4.544397336169327395e-01 -1.524063313494452288e-01 2.517825059370359386e-01 6.366199999999999637e-02 4.815590000000000148e-01 8.740980000000000416e-01
-4.549245904026942289e-01 -1.467256119264095937e-01 2.499714900790655503e-01 4.108900000000000052e-02 7.771559999999999580e-01 6.279649999999999954e-01
-4.552952192471620974e-01 -1.421281275870988348e-01 2.461826206211691903e-01 2.834400000000000114e-02 9.323510000000000408e-01 3.604410000000000114e-01
-4.554886220086880044e-01 -1.393823800881382191e-01 2.409376146143582531e-01 2.529400000000000051e-02 6.485290000000000221e-01 7.607690000000000285e-01
-4.555342879947106849e-01 -1.385171687364582516e-01 2.376529548136233627e-01 -3.787920000000000176e-01 1.182899999999999924e-02 -9.254059999999999508e-01
-3.083368902698552239e-01 -9.766531078407958422e-02 7.534316047939611238e-02 -3.771840000000000193e-01 5.025079999999999547e-01 -7.779570000000000096e-01
-3.158320207914576683e-01 -9.869562392405538398e-02 7.696315572045263342e-02 2.646370000000000111e-01 -6.272320000000000118e-01 -7.324939999999999785e-01
-2.864691039219373070e-01 -9.980156331022060900e-02 7.707235103899119644e-02 -2.524790000000000090e-01 -9.284790000000000543e-01 -2.723630000000000217e-01
-1.999628475744251455e-01 -9.457585541286450681e-02 -5.127192184453762541e-02 -5.993260000000000254e-01 -2.239999999999999804e-03 -8.005020000000000469e-01
-1.950915863667584682e-01 -9.282124983454638489e-02 -5.962391799738614440e-02 -7.452480000000000215e-01 1.659299999999999942e-01 -6.458120000000000527e-01
-2.019412761747747531e-01 -9.311425362182849941e-02 -5.146058769781196307e-02 8.014200000000000490e-02 -9.903250000000000108e-01 -1.132839999999999958e-01
-1.823750631890741492e-01 -9.455300872936689416e-02 -5.094793374871534053e-02 1.471399999999999930e-01 -9.882370000000000321e-01 -4.167799999999999977e-02
-1.787811791129171324e-01 -9.046511714642138657e-02 -6.231953641179802800e-02 -1.969329999999999969e-01 -7.451399999999999690e-02 -9.775810000000000333e-01
-1.868416336224178464e-01 -9.228483467746888269e-02 -6.503324817287245430e-02 -2.881870000000000265e-01 -9.163059999999999539e-01 -2.780859999999999999e-01
-2.138020891982547744e-01 -9.523491542219826578e-02 -3.494026695599572463e-02 -7.609580000000000233e-01 4.892500000000000321e-02 -6.469540000000000290e-01
-2.384717485626709765e-01 -9.467702810644525180e-02 -7.922804195304946132e-03 -3.440429999999999877e-01 -8.814130000000000020e-01 -3.236430000000000140e-01
-2.507068868619133917e-01 -9.699258766944224286e-02 8.610829175366216739e-03 -7.634180000000000410e-01 6.465400000000000313e-02 -6.426600000000000090e-01
-2.750028014271852506e-01 -9.623930425736153260e-02 3.561491906906245897e-02 -3.765009999999999746e-01 -8.560060000000000446e-01 -3.542620000000000213e-01
-2.737719609966254852e-01 -9.809061943073438261e-02 3.583022660863017378e-02 -4.311920000000000197e-01 -8.392699999999999605e-01 -3.312109999999999776e-01
-2.996053993136263971e-01 -9.932104914670587814e-02 6.631599335296406439e-02 9.004399999999999904e-02 -7.900960000000000205e-01 -6.063330000000000108e-01
-2.891949016442963427e-01 -9.991276839214452421e-02 7.565666713892536810e-02 4.595099999999999879e-02 -9.989390000000000214e-01 -3.199000000000000021e-03
-1.897262464617746891e-01 -9.492191804875846350e-02 -4.223536852071467507e-02 1.050740000000000007e-01 -9.930120000000000058e-01 5.372500000000000192e-02
-1.787601176688299320e-01 -9.365976473798787172e-02 -3.445377826427007545e-02 -1.842840000000000034e-01 -4.430870000000000086e-01 -8.773330000000000295e-01
-1.731543235390863855e-01 -9.136324590330373308e-02 -6.762840032279544833e-02 -2.162660000000000138e-01 -3.398269999999999902e-01 -9.152850000000000152e-01
-1.786090349384809040e-01 -9.184511816305707121e-02 -6.767951512235606537e-02 8.321900000000000130e-02 -9.958399999999999475e-01 -3.711699999999999722e-02
-1.596659909832924829e-01 -8.904984396094386967e-02 -6.211196673507358296e-02 7.107299999999999729e-02 -5.571059999999999901e-01 -8.273949999999999916e-01
-1.595175368263084537e-01 -9.015857073011492029e-02 -6.750059141911585181e-02 4.599299999999999916e-02 -4.792219999999999813e-01 -8.764880000000000448e-01
-1.486081195037139979e-01 -8.919483168680276963e-02 -6.739834539141105474e-02 9.425400000000000444e-02 -9.944060000000000121e-01 -4.766499999999999904e-02
-1.404797054203384965e-01 -8.844839351786014381e-02 -6.181847009028552248e-02 9.288530000000000397e-01 2.842099999999999835e-02 -3.693569999999999909e-01
-1.164758253559203816e-01 -8.606870224095115873e-02 -6.437377197275592766e-02 9.365850000000000009e-01 4.512599999999999945e-02 3.475239999999999996e-01
-1.244907069747050316e-01 -8.624927975493354437e-02 -5.073710573625718478e-02 1.823980000000000046e-01 -9.827430000000000332e-01 -3.077200000000000074e-02
-1.388084475224695691e-01 -8.988421886133543537e-02 -5.062488755834885362e-02 1.024199999999999972e-01 -9.872020000000000239e-01 -1.222420000000000034e-01
-1.649199779491005990e-01 -9.301102187911182428e-02 -5.078434339010440279e-02 1.590030000000000054e-01 -9.833229999999999471e-01 8.828099999999999836e-02
-1.669441492021960516e-01 -9.029588630746468447e-02 -7.051004981628893227e-03 5.446000000000000146e-02 -9.985150000000000414e-01 1.134999999999999941e-03
-2.145361456914092468e-01 -9.616656944187361444e-02 -1.283043828691005951e-02 1.163060000000000066e-01 -9.917960000000000109e-01 5.303700000000000081e-02
-2.120306388456224822e-01 -9.506905244286548151e-02 9.128543128190502731e-03 1.499580000000000080e-01 -9.852250000000000174e-01 8.272699999999999498e-02
-1.950798454057280362e-01 -9.070755375359393358e-02 3.652288307128557371e-02 4.624299999999999938e-02 -9.989280000000000381e-01 -2.004000000000000139e-03
-2.329135808965848986e-01 -9.708880988318550898e-02 8.951015854550443962e-03 1.203710000000000058e-01 -9.906899999999999595e-01 6.359499999999999875e-02
-2.453011764509985260e-01 -9.647833467154857956e-02 5.271085904445657611e-02 4.650800000000000073e-02 -9.989149999999999974e-01 -2.504999999999999848e-03
-2.558853790102003645e-01 -9.824147763710849857e-02 3.617781710279253937e-02 1.393770000000000009e-01 -9.866770000000000262e-01 8.391899999999999360e-02
-2.179399236751356217e-01 -9.104236828596339037e-02 7.192669962918349369e-02 1.350780000000000036e-01 -8.025219999999999576e-01 -5.811300000000000354e-01
-2.646976493116529605e-01 -9.733153125247259729e-02 7.721955114743232762e-02 1.651029999999999998e-01 -8.405380000000000074e-01 -5.159820000000000517e-01
-2.511556500496565092e-01 -9.504175361323083382e-02 7.723278710956411885e-02 1.565690000000000137e-01 -9.851020000000000332e-01 7.114199999999999691e-02
-2.256638222224125467e-01 -9.140877498446370319e-02 8.008144325576527223e-02 8.791799999999999615e-01 -1.591100000000000153e-02 4.762239999999999807e-01
-2.014336274674606853e-01 -8.798235293643655308e-02 8.017483427694664655e-02 8.595289999999999875e-01 -3.246000000000000187e-03 5.110770000000000035e-01
-1.966246415437669648e-01 -8.787453761891464432e-02 7.199289039223141784e-02 -9.683030000000000248e-01 2.309110000000000051e-01 -9.523600000000000121e-02
-3.159532856426973124e-01 -9.801620889972627315e-02 8.349827648720459239e-02 -2.761410000000000253e-01 -8.992409999999999570e-01 -3.392809999999999993e-01
-3.191538037147789719e-01 -1.005972708011738520e-01 9.031518579488123644e-02 -3.680400000000000338e-02 -7.168740000000000112e-01 6.962300000000000155e-01
-3.057564471783872917e-01 -9.983683000286797116e-02 8.222476007282480959e-02 5.144900000000000168e-02 -9.986620000000000497e-01 -5.198000000000000363e-03
-3.101267680170152197e-01 -1.022227258081573054e-01 1.005636647734248768e-01 6.499900000000000122e-02 -6.288449999999999873e-01 7.748089999999999700e-01
-2.935665148648287093e-01 -1.009469093920831173e-01 8.256636508638723337e-02 1.334349999999999981e-01 -9.893450000000000299e-01 5.823199999999999904e-02
-2.293638623291547607e-01 -9.159518464559970874e-02 8.553880513330282265e-02 8.571790000000000243e-01 -4.489300000000000235e-02 5.130580000000000140e-01
-2.046395614959132248e-01 -8.805458394202951566e-02 8.562950186678502940e-02 1.520430000000000115e-01 -7.494370000000000198e-01 6.443809999999999816e-01
-2.512567132193470054e-01 -9.447557533898899573e-02 8.267868731199126686e-02 1.387589999999999935e-01 -9.884659999999999558e-01 6.067299999999999777e-02
-2.367633182564650440e-01 -9.196849682537772130e-02 9.645361103129554414e-02 1.211079999999999934e-01 -6.988820000000000032e-01 7.049090000000000078e-01
-2.647987124813434567e-01 -9.676535297823075921e-02 8.266545682605400125e-02 9.631699999999999984e-02 -8.050739999999999563e-01 -5.853030000000000177e-01
-2.497125851770383986e-01 -9.262166992561270129e-02 1.155544898646644059e-01 9.428899999999999781e-02 -8.425970000000000404e-01 -5.302259999999999751e-01
-2.680665822697092526e-01 -9.436280406543509636e-02 1.153949245090186565e-01 1.459670000000000134e-01 -9.862640000000000295e-01 7.730800000000000172e-02
-2.799044390858014819e-01 -9.769432366259599154e-02 1.017549999367861890e-01 1.292870000000000130e-01 -6.661449999999999871e-01 7.345310000000000450e-01
-2.865701725678223566e-01 -9.923538503597877092e-02 8.251825671761285619e-02 2.281199999999999894e-02 -8.657479999999999620e-01 -4.999600000000000155e-01
-2.897777932641841248e-01 -9.769979438091194734e-02 1.169909833038699637e-01 3.949699999999999739e-02 -9.967040000000000344e-01 7.086299999999999544e-02
-3.062268906201973673e-01 -9.858631908162662771e-02 1.206325540818240366e-01 7.104599999999999804e-02 -9.973389999999999755e-01 -1.633799999999999836e-02
-3.264111469183483272e-01 -1.032621568119930222e-01 1.179908104690060577e-01 6.387099999999999722e-02 -9.963260000000000449e-01 5.705799999999999761e-02
-3.063279373613043144e-01 -9.802014080738477575e-02 1.260784652366402081e-01 9.097700000000000231e-02 -7.570609999999999840e-01 6.469789999999999708e-01
-2.899021959748782074e-01 -9.727984145248837200e-02 1.263063023092478587e-01 1.456820000000000059e-01 -9.889539999999999997e-01 2.731899999999999953e-02
-3.101159032471064725e-01 -9.955226503132647009e-02 1.399340806820560945e-01 1.730690000000000006e-01 -9.831640000000000379e-01 5.860900000000000137e-02
-2.663618100614363327e-01 -9.346180578262928973e-02 1.401128017660994429e-01 1.490339999999999998e-01 -9.864579999999999460e-01 6.848200000000000121e-02
-2.811613078688694478e-01 -9.420848490413037679e-02 1.619423861811123966e-01 1.210640000000000049e-01 -8.094869999999999566e-01 -5.745200000000000307e-01
-2.941105528846648109e-01 -9.486165800436538453e-02 1.810432869192592498e-01 8.475299999999999501e-02 -8.393490000000000117e-01 -5.369450000000000056e-01
-3.123998487391945744e-01 -9.734337078500419904e-02 1.809618997164448018e-01 1.341229999999999922e-01 -9.892100000000000337e-01 5.893799999999999734e-02
-3.273795845365504720e-01 -1.006139567658472095e-01 1.617507029446627886e-01 1.888199999999999948e-02 -8.943529999999999536e-01 -4.469629999999999992e-01
-3.286995226517954172e-01 -9.970422942899172247e-02 1.825568742247830889e-01 5.106100000000000222e-02 -9.977209999999999690e-01 4.410300000000000331e-02
-3.450775335268683741e-01 -1.014045768721002216e-01 1.862844048279677922e-01 4.819500000000000173e-02 -9.986840000000000162e-01 -1.753700000000000050e-02
-3.467669723905120183e-01 -1.045609130068715226e-01 1.397746850884401815e-01 5.115499999999999908e-02 -9.985960000000000392e-01 -1.373199999999999942e-02
-3.671222721480026374e-01 -1.058596253921939290e-01 1.615585761364578543e-01 5.443499999999999728e-02 -9.984359999999999902e-01 -1.276200000000000077e-02
-3.874780538106102346e-01 -1.071583761108779315e-01 1.833424617082809738e-01 6.937899999999999623e-02 -9.924709999999999921e-01 1.009339999999999959e-01
-3.451785966965588703e-01 -1.008383931216638718e-01 1.917303105065894797e-01 5.593299999999999661e-02 -9.973499999999999588e-01 -4.651399999999999979e-02
-4.205560703217766094e-01 -1.092689781419319689e-01 2.187413004053688770e-01 1.321209999999999885e-01 -9.902520000000000211e-01 4.409699999999999731e-02
-3.619069744964109603e-01 -1.027373183301106413e-01 2.053839255650980467e-01 1.058449999999999946e-01 -9.934439999999999937e-01 -4.320399999999999935e-02
-4.080102346507887834e-01 -1.081606730397382254e-01 2.188588907300919595e-01 1.305769999999999986e-01 -9.911269999999999802e-01 2.483000000000000138e-02
-3.726967753023134877e-01 -1.034008688189429481e-01 2.190193213244703840e-01 1.633759999999999935e-01 -9.853819999999999801e-01 4.827900000000000247e-02
-3.287823500937661070e-01 -9.767949960405618304e-02 2.192393767246786640e-01 9.850100000000000522e-02 -7.777699999999999614e-01 6.207829999999999737e-01
-3.288713218259775584e-01 -9.874172252944442285e-02 1.918149341403596053e-01 7.700100000000000000e-02 -7.183960000000000345e-01 6.913589999999999458e-01
-3.125633350501098584e-01 -9.665318408607301293e-02 1.919004175366678389e-01 1.668250000000000011e-01 -9.821290000000000298e-01 8.712999999999999912e-02
-3.200095631547338892e-01 -9.616805896678047583e-02 2.192450391098025031e-01 1.034869999999999957e-01 -6.843270000000000186e-01 7.217940000000000467e-01
-3.015105728600095958e-01 -9.523501946989394729e-02 1.919580709124739659e-01 -7.075979999999999492e-01 -2.064320000000000044e-01 -6.757889999999999731e-01
-3.372797665918398913e-01 -9.899975533858274002e-02 1.063326933091361531e-01 -3.106369999999999965e-01 -8.853469999999999951e-01 -3.459260000000000113e-01
-3.444726385574375938e-01 -1.024241895280025710e-01 1.175685301579155462e-01 -3.391910000000000203e-01 -8.659360000000000390e-01 -3.675660000000000038e-01
-3.647279430031672431e-01 -1.038857420332880144e-01 1.393712100292985590e-01 -7.172309999999999519e-01 -1.527050000000000074e-01 -6.798980000000000024e-01
-3.677458190359360612e-01 -1.004044704210441258e-01 1.389532832928438710e-01 -3.350330000000000252e-01 -8.676650000000000196e-01 -3.673009999999999886e-01
-3.849832857822584331e-01 -1.053467578715114178e-01 1.611738241863475141e-01 -3.605689999999999729e-01 -8.489050000000000207e-01 -3.864580000000000237e-01
-4.052385847517936401e-01 -1.068083049006023216e-01 1.829765095339250247e-01 -7.198130000000000361e-01 -1.114949999999999969e-01 -6.851549999999999585e-01
-4.083669101516440025e-01 -1.022766718002798420e-01 1.824473229536013597e-01 -3.636519999999999753e-01 -8.355010000000000492e-01 -4.119410000000000016e-01
-4.295448383723012853e-01 -1.085623847642474687e-01 2.091397407129293173e-01 -7.201849999999999641e-01 -1.339329999999999965e-01 -6.807320000000000038e-01
-4.413721042282102713e-01 -1.037985610166815009e-01 2.177863123208844676e-01 -4.433509999999999951e-01 -7.692679999999999518e-01 -4.600730000000000097e-01
-4.381533285236307029e-01 -1.091833195073993734e-01 2.184058670630197319e-01 -5.652700000000000086e-02 -9.885519999999999863e-01 -1.398929999999999896e-01
-4.342402480218480743e-01 -1.099311048201915830e-01 2.185562105071098549e-01 5.129600000000000132e-02 -7.326049999999999507e-01 -6.787180000000000435e-01
-4.304675497663411066e-01 -1.102403674289752361e-01 2.296716696481603259e-01 -1.834610000000000130e-01 -6.781110000000000193e-01 -7.116940000000000488e-01
-4.443353552207373047e-01 -1.106190955651240870e-01 2.294537006780605348e-01 -2.839829999999999854e-01 -2.571399999999999797e-01 -9.237060000000000271e-01
-4.498938569346884742e-01 -1.097249480016508488e-01 2.309095907982221529e-01 -6.919189999999999507e-01 4.707900000000000279e-02 -7.204380000000000228e-01
-4.540662626275138725e-01 -1.043837690668471957e-01 2.313782161434546902e-01 3.705200000000000160e-02 -9.985570000000000279e-01 -3.887000000000000177e-02
-4.472904959691942905e-01 -1.118418914659480012e-01 2.515182083613776709e-01 3.578400000000000331e-02 -6.862019999999999786e-01 7.265300000000000091e-01
-4.354233360362766425e-01 -1.107257827865768401e-01 2.351368131980972331e-01 -3.758889999999999731e-01 -8.934210000000000207e-01 2.459830000000000072e-01
-4.498872526441088926e-01 -1.109968817958171122e-01 2.354472586648951871e-01 -1.217469999999999941e-01 -9.769240000000000146e-01 -1.754890000000000061e-01
-4.559441921062075687e-01 -1.114098909096014195e-01 2.419857965770216557e-01 -5.748499999999999721e-01 -4.653709999999999791e-01 6.730359999999999676e-01
-4.519356889150801804e-01 -1.098190673567021047e-01 2.330841602573528737e-01 -4.808600000000000096e-01 -7.299029999999999685e-01 -4.858140000000000236e-01
-4.585716976132983569e-01 -1.101245732960515894e-01 2.401514192732696895e-01 -7.214220000000000077e-01 -1.250400000000000122e-01 -6.811129999999999685e-01
-4.896100945266552706e-01 -1.060222519405710495e-01 2.694355172752010419e-01 -5.145849999999999591e-01 -6.838340000000000529e-01 -5.172750000000000403e-01
-4.866491435358226147e-01 -1.114193921070770754e-01 2.700515836814331161e-01 -5.352179999999999715e-01 -6.550660000000000371e-01 -5.333200000000000163e-01
-5.070642104802004502e-01 -1.123608978006767622e-01 2.917972235107952339e-01 -7.221269999999999634e-01 -1.183670000000000000e-01 -6.815579999999999972e-01
-5.302316675474800789e-01 -1.078950447488139092e-01 3.129296336026816117e-01 -5.510650000000000270e-01 -6.291470000000000118e-01 -5.481800000000000006e-01
-5.274825357603120102e-01 -1.133026937325855021e-01 3.135428414353793047e-01 -5.619920000000000471e-01 -6.111729999999999663e-01 -5.573439999999999506e-01
-5.479003627067230431e-01 -1.142438927592926007e-01 3.352884155504072816e-01 -5.779590000000000005e-01 -5.852530000000000232e-01 -5.687200000000000033e-01
-5.683186934630291010e-01 -1.151856886912013267e-01 3.570340115702133610e-01 -7.231919999999999460e-01 -1.117100000000000037e-01 -6.815529999999999644e-01
-5.708559950941436423e-01 -1.097680675572261927e-01 3.564236896920227049e-01 -1.240480000000000055e-01 -9.725690000000000168e-01 -1.967800000000000105e-01
-5.667528194523194784e-01 -1.235941717904252418e-01 3.799638620338786632e-01 -1.142419999999999963e-01 -9.759210000000000385e-01 -1.858140000000000069e-01
-5.558500611822497772e-01 -1.225255855270158262e-01 3.679404388906050150e-01 -3.253630000000000133e-01 -8.750639999999999530e-01 -3.583319999999999839e-01
-5.662321100210979674e-01 -1.189237883497912401e-01 3.610406747599851918e-01 -3.441159999999999775e-01 -8.606059999999999821e-01 -3.754230000000000067e-01
-5.831410817635159782e-01 -1.200753718172011680e-01 3.792939208260526218e-01 -5.874080000000000412e-01 -5.691800000000000193e-01 -5.753139999999999921e-01
-5.887365587428018410e-01 -1.161268986702974626e-01 3.787795637804632909e-01 -7.237320000000000420e-01 -1.088599999999999984e-01 -6.814409999999999634e-01
-5.911637724356725299e-01 -1.107044749137366529e-01 3.781707861891245304e-01 -1.218660000000000021e-01 -8.266149999999999887e-01 -5.494149999999999867e-01
-5.923747233277704138e-01 -1.261045907826879031e-01 4.082187476109307989e-01 -2.833439999999999848e-01 -6.615799999999999459e-01 -6.942819999999999547e-01
-6.092364847973137376e-01 -1.218534264604130835e-01 4.074639089596091002e-01 -5.879689999999999639e-01 -5.678229999999999666e-01 -5.760809999999999542e-01
-5.938411222651974741e-01 -1.163624845581373995e-01 3.842159846901927467e-01 -5.908959999999999768e-01 -5.588290000000000202e-01 -5.818520000000000358e-01
-5.989457241209549254e-01 -1.165975173503318030e-01 3.896523617903662751e-01 -5.971480000000000121e-01 -5.499100000000000099e-01 -5.839630000000000098e-01
-6.040503259767121547e-01 -1.168331032381717399e-01 3.950887827000957864e-01 -4.142170000000000019e-01 -3.963530000000000109e-01 -8.193470000000000475e-01
-6.151272217560199707e-01 -1.173438569477732313e-01 4.068857542479729084e-01 -7.237810000000000077e-01 -1.080900000000000055e-01 -6.815120000000000067e-01
-5.962415518907177026e-01 -1.109382317526100975e-01 3.836075411467192442e-01 -7.238419999999999854e-01 -1.074019999999999975e-01 -6.815550000000000219e-01
-6.013192875362066703e-01 -1.111725471633236151e-01 3.890442961043139025e-01 -7.237689999999999957e-01 -1.066769999999999941e-01 -6.817459999999999631e-01
-6.063970286578901359e-01 -1.114068461454536113e-01 3.944810893952702124e-01 -3.700820000000000221e-01 -1.268340000000000023e-01 -9.203000000000000069e-01
-6.174153893940756976e-01 -1.119146098528523842e-01 4.062788604675458548e-01 7.049999999999999323e-02 -9.973349999999999715e-01 -1.876799999999999996e-02
-4.334573767308274039e-01 -1.112876074861828685e-01 2.489983265050009498e-01 7.898299999999999765e-02 -6.869629999999999903e-01 7.223880000000000301e-01
-4.218905696382248549e-01 -1.098659873912676971e-01 2.352985416505746219e-01 9.038799999999999613e-02 -7.490050000000000319e-01 -6.563700000000000090e-01
-4.172635959914753334e-01 -1.092975310201095146e-01 2.298186726135991176e-01 1.224900000000000017e-01 -7.997239999999999904e-01 -5.877390000000000114e-01
-3.806316825764674006e-01 -1.044972522456874414e-01 2.299993486990826730e-01 1.838559999999999917e-01 -8.441720000000000335e-01 -5.035579999999999501e-01
-3.365461262894681727e-01 -9.886498619168035407e-02 2.313331963483842013e-01 1.862330000000000096e-01 -9.821100000000000385e-01 2.789600000000000066e-02
-3.186392440499927203e-01 -9.445396627545073198e-02 2.328588805675816387e-01 9.624139999999999917e-01 1.560899999999999961e-02 2.711370000000000169e-01
-2.936086048958360673e-01 -9.109861975597483008e-02 2.508711357418273447e-01 8.763360000000000039e-01 2.902300000000000019e-02 4.808250000000000024e-01
-2.831854243600198662e-01 -8.982430929339101089e-02 2.192688331749504393e-01 1.647859999999999880e-01 -9.863229999999999498e-01 3.438000000000000084e-03
-3.392055306295824191e-01 -9.895382101902901184e-02 2.508416847677500949e-01 1.829099999999999893e-01 -7.748040000000000482e-01 6.051630000000000065e-01
-3.386634804683535949e-01 -9.918809809638096109e-02 2.346314809210610919e-01 1.060419999999999974e-01 -7.407289999999999708e-01 6.633820000000000272e-01
-3.845992019278784424e-01 -1.050451674112369144e-01 2.354893541720970707e-01 1.242189999999999961e-01 -8.087820000000000009e-01 -5.748400000000000176e-01
-3.496287385463712205e-01 -1.002281369578073428e-01 2.824439654298488978e-01 7.291599999999999471e-02 -8.114770000000000039e-01 -5.798170000000000268e-01
-3.704246693427569737e-01 -1.040375750022850126e-01 2.841060999876633963e-01 1.644599999999999881e-02 -8.895100000000000229e-01 -4.566189999999999971e-01
-3.949564326532052361e-01 -1.074296339297590025e-01 2.856555344624527315e-01 1.115740000000000065e-01 -9.936230000000000340e-01 -1.629299999999999846e-02
-4.103868921159389838e-01 -1.086079302739909463e-01 2.711744226038576566e-01 2.743900000000000158e-02 -9.996199999999999530e-01 2.516000000000000007e-03
-4.058791187950985258e-01 -1.085962221701275848e-01 2.888781325508005260e-01 5.960800000000000126e-02 -9.951879999999999615e-01 7.777199999999999391e-02
-4.059397402683293521e-01 -1.082565119198657666e-01 2.921456682913012304e-01 1.053520000000000012e-01 -9.942159999999999886e-01 -2.086800000000000113e-02
-4.281569078260145100e-01 -1.109112122088955071e-01 2.899343316622273181e-01 2.485300000000000009e-02 -9.979780000000000317e-01 -5.850000000000000339e-02
-4.654683293606582395e-01 -1.136202089664964249e-01 2.717059475192373230e-01 6.331699999999999828e-02 -9.975549999999999695e-01 -2.959000000000000172e-02
-4.623054108400854179e-01 -1.145763580042170743e-01 2.974084062159370601e-01 1.697900000000000104e-02 -9.978050000000000530e-01 -6.400500000000000633e-02
-4.834390530757366466e-01 -1.153257533181953481e-01 2.962837930064911585e-01 1.826369999999999938e-01 -9.830440000000000289e-01 1.637999999999999873e-02
-3.605046251299781068e-01 -1.015583155567868490e-01 3.154203328185121169e-01 1.167429999999999995e-01 -7.289710000000000356e-01 6.745170000000000332e-01
-3.532540340742402196e-01 -1.006715334749301860e-01 2.934360842419402871e-01 1.085269999999999985e-01 -7.830129999999999590e-01 6.124650000000000372e-01
-3.764238459051593155e-01 -1.049539613916652125e-01 2.934513573484299753e-01 1.556079999999999963e-01 -7.882259999999999822e-01 -5.953869999999999996e-01
-3.695684334738796317e-01 -1.026665713732300145e-01 3.429006161582543455e-01 2.536889999999999978e-01 -7.655459999999999487e-01 -5.912539999999999463e-01
-3.954150091815111234e-01 -1.083232229213921816e-01 3.430090721905340034e-01 1.071440000000000031e-01 -9.619100000000000428e-01 -2.514930000000000221e-01
-4.087006458736948677e-01 -1.101733114271946645e-01 3.364078263750682751e-01 6.971199999999999619e-02 -8.521090000000000053e-01 5.187000000000000499e-01
-3.950978991859939726e-01 -1.066369821553426050e-01 2.932798265077788402e-01 1.020210000000000006e-01 -9.944929999999999604e-01 -2.398600000000000038e-02
-4.403232596460110448e-01 -1.129503170444209892e-01 3.203197088087954558e-01 1.872599999999999959e-02 -8.920200000000000351e-01 -4.516069999999999807e-01
-4.268394120935211644e-01 -1.133024746848050740e-01 3.433779486527585023e-01 -1.104770000000000058e-01 -9.601939999999999920e-01 -2.565609999999999835e-01
-4.392415688491381198e-01 -1.136805182966401095e-01 3.452587202764030860e-01 9.254099999999999826e-02 -9.954479999999999995e-01 -2.280700000000000088e-02
-4.626040112981571473e-01 -1.152217932416088053e-01 3.332111964010889826e-01 -1.349130000000000051e-01 -9.905410000000000048e-01 -2.505500000000000088e-02
-4.445440037077802997e-01 -1.130091368496578264e-01 3.497432252467685965e-01 -7.342899999999999427e-02 -9.964239999999999764e-01 4.179999999999999688e-02
-4.445553668113895185e-01 -1.130562923605873960e-01 3.513999274196287770e-01 1.081509999999999971e-01 -9.934849999999999515e-01 -3.592000000000000054e-02
-4.738653234037992767e-01 -1.173772507818980071e-01 3.590145539816439468e-01 -7.349999999999999763e-03 -9.941379999999999661e-01 -1.078729999999999967e-01
-5.049783006101941085e-01 -1.173151945457054923e-01 3.159235512844671967e-01 6.955999999999999683e-02 -9.951609999999999623e-01 -6.940499999999999448e-02
-5.028113375852383271e-01 -1.194426358748792022e-01 3.407190262177612339e-01 -5.793500000000000039e-02 -9.856249999999999734e-01 -1.587010000000000087e-01
-5.271062226259422001e-01 -1.197091403569252033e-01 3.362424617294358931e-01 2.159200000000000008e-02 -9.963180000000000369e-01 -8.297200000000000408e-02
-5.444993009154738273e-01 -1.249311134896251702e-01 3.805157748214207936e-01 3.501999999999999905e-03 -8.925520000000000120e-01 -4.509310000000000263e-01
-5.684193404419368711e-01 -1.278701816071940167e-01 4.088468287879188368e-01 8.998699999999999755e-02 -9.014330000000000398e-01 -4.234620000000000051e-01
-5.102460109194453253e-01 -1.224030885320113865e-01 4.093579220215800007e-01 1.187099999999999961e-01 -8.736610000000000209e-01 -4.718310000000000004e-01
-4.511334264192979338e-01 -1.163609676522579933e-01 4.098266952240643413e-01 -2.538299999999999931e-02 -8.714610000000000412e-01 4.898080000000000211e-01
-4.391126373255838655e-01 -1.126734844595282670e-01 3.536637807540579659e-01 3.941299999999999665e-02 -7.661249999999999449e-01 6.414819999999999967e-01
-4.281795080807591636e-01 -1.119810087112916991e-01 3.537946782314415062e-01 9.242799999999999627e-02 -7.482220000000000537e-01 6.569789999999999797e-01
-4.152432361697591112e-01 -1.108808686151130513e-01 3.539203514192620359e-01 1.428419999999999968e-01 -7.712059999999999471e-01 6.203530000000000433e-01
-3.956171409970866137e-01 -1.071908663729084776e-01 3.539008835477773784e-01 1.845430000000000126e-01 -9.827620000000000244e-01 1.110200000000000076e-02
-3.750064205752390856e-01 -1.033313923391887545e-01 3.593887314001546485e-01 1.116140000000000049e-01 -7.159630000000000161e-01 6.891589999999999661e-01
-3.731937509065266223e-01 -1.031099733665473694e-01 3.538927349703457903e-01 1.901599999999999957e-01 -9.809719999999999551e-01 3.914900000000000324e-02
-3.895081886395276305e-01 -1.051044745977851719e-01 4.033571792675477163e-01 1.325300000000000089e-01 -8.077560000000000295e-01 -5.744270000000000209e-01
-3.916292392497076613e-01 -1.053636245506036212e-01 4.097875459095090545e-01 1.269480000000000053e-01 -1.788959999999999995e-01 -9.756439999999999557e-01
-3.460322861349888202e-01 -9.750842876374395118e-02 4.098169585502247081e-01 9.490969999999999684e-01 2.449199999999999988e-02 3.140299999999999758e-01
-3.439112629057813897e-01 -9.724927881092550186e-02 4.033866357178194084e-01 -1.960330000000000128e-01 9.626270000000000104e-01 -1.868690000000000073e-01
-1.876740699499527265e-01 -8.941707756481523384e-02 -5.158021516689294261e-02 -2.606100000000000083e-01 9.413759999999999906e-01 -2.142300000000000038e-01
-1.980036951787523258e-01 -9.183313077327368013e-02 -5.152071631353680181e-02 -2.084959999999999869e-01 9.620539999999999647e-01 -1.760170000000000068e-01
-2.242506738004050593e-01 -8.900420535589369242e-02 -8.248687054427850454e-03 -4.154100000000000015e-01 8.455249999999999710e-01 -3.354440000000000199e-01
-2.346947679230567962e-01 -9.184040863577806746e-02 -8.147623884737329944e-03 -2.389670000000000127e-01 9.508259999999999490e-01 -1.970409999999999939e-01
-2.607658128436720069e-01 -8.930156819400612844e-02 3.515782111327444420e-02 -4.830659999999999954e-01 7.791879999999999917e-01 -3.993920000000000248e-01
-2.715638005603676630e-01 -9.295688422018144603e-02 3.533747862657907191e-02 -2.098980000000000012e-01 9.585860000000000491e-01 -1.924970000000000014e-01
-2.973807391033085334e-01 -8.844976256648776070e-02 7.844300966779202411e-02 -4.713760000000000172e-01 7.645720000000000294e-01 -4.395839999999999748e-01
-3.081005979529234384e-01 -9.158370106571128710e-02 7.856990404698838137e-02 -2.086669999999999914e-01 9.589480000000000226e-01 -1.920320000000000082e-01
-3.202650276286468367e-01 -8.791730669804131981e-02 1.054962484072196199e-01 -3.925049999999999928e-01 8.345559999999999645e-01 -3.865959999999999952e-01
-3.309228247658747013e-01 -9.127102131155309661e-02 1.056471449469553181e-01 -6.150959999999999761e-01 5.456689999999999596e-01 -5.691249999999999920e-01
-3.345752384089594744e-01 -9.350724724467707194e-02 1.058118524492464019e-01 -1.775430000000000064e-01 9.689689999999999692e-01 -1.719809999999999950e-01
-3.477269109548338788e-01 -8.727865646564805790e-02 1.379601370850105646e-01 -3.696139999999999981e-01 8.660130000000000328e-01 -3.367600000000000038e-01
-3.582809451584776372e-01 -8.996383177712849455e-02 1.380434573844872004e-01 -5.044419999999999460e-01 7.378040000000000154e-01 -4.485339999999999883e-01
-3.614115869886058152e-01 -9.188060390348484763e-02 1.381846446313558519e-01 -6.331120000000000081e-01 5.183250000000000357e-01 -5.748980000000000201e-01
-3.645185388012818217e-01 -9.406864480111129523e-02 1.383544668993197113e-01 -1.862330000000000096e-01 9.675270000000000259e-01 -1.709070000000000034e-01
-3.843418755478319460e-01 -8.642685631432421578e-02 1.812453365919171888e-01 -3.222900000000000209e-01 9.002229999999999954e-01 -2.927919999999999967e-01
-3.955411861792265671e-01 -8.974803138005484071e-02 1.813827890741296911e-01 -4.439460000000000073e-01 8.010960000000000303e-01 -4.014449999999999963e-01
-3.997864581162081099e-01 -9.148990480613614085e-02 1.814851117685576387e-01 -6.275330000000000075e-01 5.364010000000000167e-01 -5.643369999999999775e-01
-4.044587637011153314e-01 -9.463632902884351605e-02 1.817255331361503079e-01 -1.804820000000000035e-01 9.735479999999999690e-01 -1.401090000000000113e-01
-4.140917348452668456e-01 -8.573502128084536933e-02 2.164145694055705504e-01 -2.791759999999999797e-01 9.327579999999999760e-01 -2.280860000000000110e-01
-4.250843191338916638e-01 -8.889304955972039679e-02 2.165389064019305199e-01 -3.943019999999999858e-01 8.524370000000000003e-01 -3.433329999999999993e-01
-4.298988031568738433e-01 -9.041183377383464614e-02 2.166074683572014881e-01 -5.316260000000000430e-01 7.020920000000000494e-01 -4.737509999999999777e-01
-4.330294230822240853e-01 -9.232860042399647360e-02 2.167486391754866182e-01 -5.875209999999999599e-01 6.066949999999999843e-01 -5.354820000000000135e-01
-4.366107666729520664e-01 -9.537865457570877947e-02 2.169993010268138345e-01 -6.749429999999999596e-01 4.062700000000000200e-01 -6.159510000000000263e-01
-4.391485666377670238e-01 -9.778979016149683123e-02 2.172028730815456499e-01 -1.164879999999999943e-01 9.904119999999999591e-01 -7.425900000000000556e-02
-4.511696076364285490e-01 -8.680878802426165997e-02 2.671188569971074123e-01 -2.126379999999999937e-01 9.642209999999999948e-01 -1.583090000000000053e-01
-4.686742798176943281e-01 -8.946722855414201980e-02 2.681028798648862899e-01 -2.730339999999999989e-01 9.352310000000000345e-01 -2.253769999999999940e-01
-4.753742121344330385e-01 -9.142593737805947141e-02 2.681821970661757981e-01 -4.439690000000000025e-01 8.119950000000000223e-01 -3.788869999999999738e-01
-4.796669024396806869e-01 -9.262526230921155901e-02 2.682272168612462870e-01 -6.090229999999999810e-01 5.832479999999999887e-01 -5.375060000000000393e-01
-4.837463059211349337e-01 -9.626604451515610728e-02 2.685300394652856415e-01 -6.796510000000000051e-01 3.927959999999999785e-01 -6.195049999999999724e-01
-4.519018460330055387e-01 -9.847206923555490432e-02 2.308037633393075216e-01 -6.864099999999999646e-01 3.722239999999999993e-01 -6.247319999999999540e-01
-4.876104566249666039e-01 -1.003826204049473730e-01 2.688863206801361261e-01 -8.134600000000000164e-02 9.957810000000000272e-01 -4.246599999999999681e-02
-4.800440917651720429e-01 -8.776545730046080018e-02 3.088316986790039520e-01 -2.254800000000000137e-01 9.607280000000000264e-01 -1.617439999999999989e-01
