-0.464131 0.145695 0.187692 0.998164 0.058294 0.016480 
-0.463069 0.143285 0.159953 0.999658 0.021982 0.014205 
-0.461389 0.072372 0.102962 0.998990 0.040950 0.018495 
-0.460293 0.047930 0.074720 0.987748 0.155112 -0.017104 
-0.457554 0.023491 0.046510 0.987090 0.156936 0.032009 
-0.459109 0.025644 0.071287 0.991517 0.129978 -0.000181 
-0.459615 0.028014 0.098560 0.982355 0.185735 0.021950 
-0.456235 0.013905 0.094351 0.981441 0.175440 -0.077429 
-0.454477 0.000035 0.029615 0.891141 0.423957 -0.161641 
-0.455016 -0.004755 -0.000216 0.991240 0.125249 0.041916 
-0.455144 0.005873 0.095069 0.985603 -0.149422 0.079116 
-0.456199 0.004895 0.122623 0.966552 0.243905 0.079296 
-0.425214 -0.034052 0.048678 0.913537 0.403599 0.050581 
-0.419445 -0.042631 0.003735 0.852720 0.522066 0.017781 
-0.415441 -0.046643 -0.064565 0.431336 0.829700 -0.354326 
-0.460179 -0.008085 -0.017066 0.802425 0.556982 -0.214207 
-0.454705 -0.011680 -0.016652 0.481620 0.846583 -0.226582 
-0.458261 -0.012978 -0.031614 0.815848 0.578145 -0.011857 
-0.410204 -0.053216 -0.140205 0.814841 0.578618 -0.035149 
-0.408142 -0.062869 -0.251318 0.814841 0.578618 -0.035149 
-0.406164 -0.072129 -0.357903 0.814842 0.578617 -0.035149 
-0.404306 -0.080829 -0.458052 0.814841 0.578618 -0.035149 
-0.402128 -0.091027 -0.575437 0.846028 0.532953 -0.014085 
-0.400897 -0.096790 -0.641766 0.866570 0.498399 -0.025591 
-0.399241 -0.100698 -0.686752 0.925442 0.378282 -0.021424 
-0.398095 -0.106067 -0.748554 0.930164 0.360555 -0.069247 
-0.398623 -0.110002 -0.793854 0.003427 -0.992142 -0.125070 
-0.446945 -0.196831 -0.870883 -0.802567 -0.536955 -0.259936 
-0.498736 -0.174068 -0.677661 -0.934742 -0.291774 -0.202797 
-0.503580 -0.168809 -0.667762 -0.785942 -0.599974 -0.149419 
-0.500025 -0.175897 -0.667081 -0.494932 -0.854463 -0.157910 
-0.490721 -0.184616 -0.666151 -0.929806 -0.362701 -0.062519 
-0.504601 -0.169517 -0.656944 -0.723826 -0.686116 -0.072950 
-0.498035 -0.179876 -0.655922 -0.342104 -0.930957 -0.127603 
-0.485447 -0.188591 -0.654932 -0.991919 0.071122 -0.105062 
-0.508786 -0.151468 -0.639018 -0.973373 -0.192307 -0.124751 
-0.508791 -0.162379 -0.638070 -0.878571 -0.469634 -0.086929 
-0.504690 -0.173286 -0.637046 -0.704939 -0.707952 -0.043179 
-0.498671 -0.181462 -0.636224 -0.553827 -0.831563 -0.042167 
-0.492377 -0.186365 -0.635682 -0.405748 -0.913406 -0.032525 
-0.486356 -0.189632 -0.635286 -0.143746 -0.987136 -0.069997 
-0.478692 -0.192297 -0.634912 -0.956300 -0.245374 -0.159004 
-0.510241 -0.160722 -0.618999 -0.864676 -0.494805 -0.086632 
-0.506139 -0.171628 -0.617975 -0.709280 -0.704478 -0.025172 
-0.500120 -0.179805 -0.617153 -0.581037 -0.813874 0.002151 
-0.493826 -0.184708 -0.616610 -0.469200 -0.883018 0.011432 
-0.487532 -0.188793 -0.616139 -0.203670 -0.978685 0.026371 
-0.480142 -0.192058 -0.615718 -0.015703 -0.999525 0.026517 
-0.465358 -0.192150 -0.615436 0.001050 -0.999990 0.004183 
-0.451671 -0.192735 -0.615131 -0.785370 -0.615479 -0.066168 
-0.508769 -0.172307 -0.594160 -0.681205 -0.730854 -0.042579 
-0.503570 -0.177757 -0.593590 -0.567291 -0.823258 -0.020676 
-0.497002 -0.183205 -0.592995 -0.419425 -0.907684 0.013845 
-0.489339 -0.187561 -0.592474 -0.162723 -0.984989 0.057599 
-0.480580 -0.190660 -0.592042 -0.009153 -0.996976 0.077172 
-0.465797 -0.190698 -0.591765 -0.000431 -0.996446 0.084241 
-0.452109 -0.190792 -0.591502 -0.760425 -0.649424 -0.001415 
-0.509482 -0.172983 -0.570309 -0.655666 -0.754981 0.010377 
-0.504557 -0.178433 -0.569744 -0.530370 -0.847332 0.027170 
-0.497989 -0.182790 -0.569244 -0.372425 -0.926737 0.049573 
-0.491968 -0.186330 -0.568824 -0.105606 -0.990844 0.084122 
-0.481018 -0.188609 -0.568423 -0.006324 -0.996238 0.086433 
-0.466235 -0.188646 -0.568146 -0.000473 -0.996248 0.086542 
-0.452547 -0.188740 -0.567883 -0.798001 -0.583082 0.152345 
-0.511726 -0.162477 -0.449378 -0.779107 -0.625570 0.040681 
-0.510562 -0.167927 -0.512107 -0.654346 -0.754308 0.053391 
-0.505637 -0.173377 -0.511542 -0.532220 -0.844224 0.063468 
-0.499069 -0.177734 -0.511042 -0.362321 -0.929112 0.073995 
-0.493048 -0.181273 -0.510623 -0.105559 -0.990843 0.084188 
-0.482098 -0.183552 -0.510221 -0.006375 -0.996228 0.086540 
-0.467315 -0.183590 -0.509944 -0.000474 -0.996248 0.086542 
-0.453627 -0.183684 -0.509682 -0.000465 -0.996290 0.086050 
-0.454791 -0.178234 -0.446953 -0.886246 -0.462760 0.020519 
-0.512789 -0.157501 -0.392103 -0.921416 -0.387962 0.021878 
-0.513345 -0.154895 -0.362102 -0.924729 -0.380294 0.015881 
-0.513626 -0.153582 -0.346993 -0.777218 -0.627950 0.040134 
-0.509796 -0.159033 -0.346448 -0.775150 -0.619448 0.124211 
-0.509920 -0.158450 -0.339739 -0.921708 -0.376700 0.092469 
-0.513750 -0.152999 -0.340284 -0.997980 -0.036291 0.052161 
-0.516098 -0.139363 -0.341512 -0.994756 0.060665 0.082347 
-0.514997 -0.126813 -0.342582 -0.999243 -0.014687 0.036022 
-0.514094 -0.129518 -0.323088 -0.991908 -0.084194 0.095020 
-0.513824 -0.137701 -0.322372 -0.953661 -0.255701 0.158580 
-0.512459 -0.145883 -0.321636 -0.845422 -0.490789 0.210683 
-0.510272 -0.151336 -0.321121 -0.680096 -0.696470 0.228911 
-0.503705 -0.158967 -0.320337 -0.423360 -0.883732 0.199458 
-0.496316 -0.164414 -0.319726 -0.113514 -0.985891 0.123015 
-0.485641 -0.167130 -0.319292 -0.000935 -0.993776 0.111394 
-0.470858 -0.167113 -0.319019 -0.000935 -0.993776 0.111394 
-0.457169 -0.167098 -0.318767 -0.000473 -0.996248 0.086542 
-0.456815 -0.168756 -0.337858 -0.996379 -0.054707 0.065079 
-0.513678 -0.127621 -0.301254 -0.974556 -0.209165 0.080566 
-0.512313 -0.135803 -0.300518 -0.916209 -0.380596 0.125334 
-0.510673 -0.141257 -0.300013 -0.816364 -0.550985 0.173108 
-0.506843 -0.147800 -0.299374 -0.705283 -0.682826 0.190593 
-0.501371 -0.154340 -0.298704 -0.544972 -0.811887 0.209393 
-0.495898 -0.158971 -0.298200 -0.251867 -0.946509 0.201701 
-0.486045 -0.164143 -0.297568 0.003332 -0.991667 0.128782 
-0.471809 -0.164127 -0.297305 -0.001477 -0.990075 0.140532 
-0.457574 -0.164111 -0.297043 -0.935566 -0.337234 0.104836 
-0.509981 -0.136633 -0.278411 -0.810364 -0.571746 0.128132 
-0.505058 -0.144810 -0.277609 -0.689550 -0.707811 0.153376 
-0.499038 -0.151896 -0.276882 -0.373541 -0.910814 0.175740 
-0.490828 -0.158434 -0.276162 -0.206497 -0.952502 0.223830 
-0.479879 -0.160058 -0.275818 -0.854582 -0.503081 0.128834 
-0.505857 -0.140899 -0.264220 -0.700448 -0.697343 0.151939 
-0.500385 -0.147712 -0.263526 -0.455449 -0.849789 0.265379 
-0.493817 -0.152887 -0.262955 -0.731956 -0.625005 0.271310 
-0.502279 -0.142983 -0.250228 0.277403 0.116150 0.953707 
-0.511138 -0.006044 0.221424 0.293778 0.113504 0.949111 
-0.544155 0.000773 0.229367 0.315823 0.135200 0.939136 
-0.593681 0.011504 0.241239 0.164865 0.982526 0.086376 
-0.618331 -0.122624 -0.343888 0.279566 -0.007793 0.960095 
-0.566480 -0.132770 -0.333452 -0.648999 0.696963 0.305031 
-0.583003 -0.130422 -0.328620 0.279632 -0.007796 0.960076 
-0.610542 -0.126509 -0.320567 -0.651835 0.694891 0.303705 
-0.643588 -0.121813 -0.310904 0.189345 0.973486 0.128349 
-0.738089 -0.106607 -0.295886 0.808278 0.542926 0.227857 
-0.734593 -0.109666 -0.277362 -0.616862 0.687444 0.383279 
-0.745660 -0.108406 -0.271355 0.194172 0.971284 0.137491 
-0.765790 -0.103348 -0.279003 0.476851 -0.060099 0.876927 
-0.787160 -0.103684 -0.248826 0.201773 0.968070 0.148752 
-0.793491 -0.100091 -0.262121 0.474104 -0.081816 0.876659 
-0.820359 -0.099906 -0.230803 0.479043 -0.033756 0.877142 
-0.892292 -0.091721 -0.191753 0.482758 0.000091 0.875754 
-0.936558 -0.086684 -0.167722 -0.412134 -0.856586 -0.310493 
-0.584414 -0.152069 -0.547612 -0.383146 -0.885526 -0.262762 
-0.606684 -0.148472 -0.528230 -0.346337 -0.910699 -0.225115 
-0.628954 -0.144875 -0.508849 -0.315574 -0.929693 -0.189961 
-0.651225 -0.141278 -0.489467 0.493192 -0.855354 -0.158529 
-0.571554 -0.152559 -0.443103 -0.315147 -0.914673 -0.253092 
-0.574839 -0.152562 -0.443164 0.515855 -0.856669 0.003256 
-0.571757 -0.153520 -0.432028 -0.444906 -0.894959 -0.033270 
-0.576526 -0.152740 -0.431531 0.475579 -0.876646 0.072922 
-0.572571 -0.153093 -0.417621 -0.398634 -0.917079 -0.007507 
-0.578111 -0.151705 -0.414326 0.575448 -0.816263 0.050741 
-0.573460 -0.152042 -0.399201 -0.519711 -0.850880 0.076840 
-0.578935 -0.152048 -0.399302 0.584469 -0.802697 0.118638 
-0.572795 -0.150663 -0.375990 -0.696987 -0.709437 0.104445 
-0.580472 -0.149340 -0.375535 0.509430 -0.859597 -0.039665 
-0.632587 -0.140107 -0.401335 -0.506683 -0.853151 -0.124121 
-0.636967 -0.140111 -0.401416 0.455091 -0.890190 0.021329 
-0.633509 -0.141091 -0.381035 -0.719830 -0.692031 -0.054208 
-0.639048 -0.139430 -0.377763 0.522673 -0.850769 0.054816 
-0.633931 -0.142040 -0.358107 -0.682051 -0.729740 0.047811 
-0.640540 -0.140593 -0.356219 0.655216 -0.755436 -0.003154 
-0.734845 -0.122746 -0.322274 0.631006 -0.773879 0.054250 
-0.735065 -0.123356 -0.310313 -0.625118 -0.779596 -0.038148 
-0.743058 -0.122755 -0.322426 -0.603829 -0.791433 0.095002 
-0.743379 -0.122891 -0.305010 0.547268 -0.836950 -0.003608 
-0.735089 -0.123077 -0.338743 -0.492745 -0.863324 -0.108965 
-0.740564 -0.123083 -0.338844 0.610312 -0.789470 0.065249 
-0.802130 -0.114152 -0.268009 0.865448 -0.488728 0.110204 
-0.800463 -0.106477 -0.269745 0.634859 -0.771289 0.045454 
-0.801903 -0.114120 -0.280286 0.944834 -0.305201 0.118917 
-0.800257 -0.106801 -0.280891 -0.608096 -0.788480 0.092302 
-0.809890 -0.113719 -0.263059 -0.641181 -0.767371 0.005257 
-0.809569 -0.114128 -0.280427 0.558750 -0.828633 -0.034137 
-0.801498 -0.116015 -0.302105 -0.567455 -0.813034 -0.130272 
-0.807521 -0.116022 -0.302216 -0.639620 0.737926 -0.215294 
-0.690671 -0.131604 -0.474622 0.646038 0.739238 -0.190165 
-0.689028 -0.131602 -0.474592 0.671743 0.689404 -0.271079 
-0.687906 -0.137660 -0.490538 -0.662834 0.687899 -0.295711 
-0.691191 -0.137664 -0.490599 0.674875 0.663420 -0.323137 
-0.687605 -0.145356 -0.506357 -0.663988 0.661909 -0.347846 
-0.690890 -0.145359 -0.506418 0.567463 0.727212 -0.386198 
-0.687852 -0.153325 -0.522163 -0.554466 0.725944 -0.406906 
-0.690042 -0.153327 -0.522203 0.010721 0.777527 -0.628758 
-0.688737 -0.159777 -0.533164 0.004880 -0.903052 0.429503 
-0.692382 -0.124120 -0.337860 -0.006938 -0.970506 0.240976 
-0.691879 -0.133582 -0.364518 -0.005604 -0.962067 0.272757 
-0.691377 -0.143044 -0.391175 -0.993839 -0.106035 0.032274 
-0.692959 -0.143707 -0.424134 0.992908 -0.094173 0.072561 
-0.688578 -0.143702 -0.424053 -0.005666 -0.931483 0.363742 
-0.690894 -0.152684 -0.416718 -0.999667 -0.024751 -0.007242 
-0.693000 -0.146077 -0.451417 0.998516 -0.040377 0.036556 
-0.687525 -0.146071 -0.451316 -0.005421 -0.936336 0.351064 
-0.690573 -0.159656 -0.433699 -0.009425 -0.827307 0.561671 
-0.690473 -0.162857 -0.438917 -0.998511 0.051139 -0.019037 
-0.692595 -0.147973 -0.473236 0.998384 0.053862 0.018125 
-0.687120 -0.147967 -0.473135 -0.998207 0.049422 -0.033777 
-0.692291 -0.149395 -0.489600 0.998660 0.051672 0.003078 
-0.686816 -0.149388 -0.489499 -0.992383 0.122138 -0.016043 
-0.691495 -0.137060 -0.474164 0.991961 0.124495 0.022675 
-0.688210 -0.137057 -0.474103 -0.993523 0.089437 -0.070093 
-0.691440 -0.150816 -0.505954 0.995228 0.091684 -0.033388 
-0.687060 -0.150811 -0.505873 -0.971133 0.170861 -0.166454 
-0.691139 -0.156056 -0.521987 0.976227 0.173057 -0.130513 
-0.686758 -0.156051 -0.521906 -0.011101 -0.761566 0.647992 
-0.847505 -0.103761 -0.243548 -0.006758 -0.906687 0.421750 
-0.847305 -0.108527 -0.254125 -0.006016 -0.923915 0.382551 
-0.847004 -0.116496 -0.269921 -0.993170 -0.109108 0.041354 
-0.849235 -0.116141 -0.297482 0.994353 -0.090195 0.055918 
-0.843759 -0.116134 -0.297381 -0.008249 -0.866188 0.499649 
-0.846704 -0.125555 -0.285621 -0.007312 -0.892610 0.450770 
-0.846404 -0.134615 -0.301322 -0.998904 -0.038445 -0.026711 
-0.848728 -0.118510 -0.324755 0.997692 -0.049202 0.046802 
-0.843253 -0.118504 -0.324654 -0.998582 0.052052 -0.011109 
-0.848192 -0.121022 -0.353665 0.998193 0.054302 0.025741 
-0.842717 -0.121015 -0.353564 -0.648750 0.720796 -0.244084 
-0.847225 -0.112766 -0.347218 0.653879 0.719343 -0.234495 
-0.843940 -0.112763 -0.347157 -0.702811 0.665416 -0.251550 
-0.848019 -0.118554 -0.363223 0.710110 0.667012 -0.225474 
-0.842543 -0.118548 -0.363122 -0.595679 0.714349 -0.367250 
-0.846421 -0.128560 -0.389813 0.607218 0.715703 -0.345045 
-0.843136 -0.128556 -0.389752 0.013430 0.642024 -0.766567 
-0.844629 -0.133633 -0.397585 -0.000474 -0.996248 0.086543 
-0.455702 -0.173969 -0.397860 -0.000473 -0.996248 0.086542 
-0.456005 -0.172547 -0.381496 0.797958 0.560136 0.222511 
-0.571987 -0.131987 -0.331841 0.798643 0.558854 0.223275 
-0.632572 -0.123379 -0.314125 0.604388 -0.758198 0.244644 
-0.573644 -0.140586 -0.330598 -0.674515 -0.705286 0.218180 
-0.581355 -0.139288 -0.328353 -0.004702 0.116683 0.993158 
-0.577963 -0.132295 -0.304789 -0.004322 0.119229 0.992857 
-0.638542 -0.123612 -0.287426 0.605871 -0.755384 0.249630 
-0.634229 -0.131873 -0.312885 -0.675918 -0.703758 0.218769 
-0.641940 -0.130575 -0.310645 0.814241 0.526674 0.244185 
-0.800993 -0.102110 -0.241316 -0.628158 0.674800 0.387378 
-0.812059 -0.100850 -0.235309 0.011984 0.116749 0.993089 
-0.740538 -0.110044 -0.252013 0.604155 -0.764084 0.226213 
-0.736257 -0.117605 -0.275755 -0.643466 -0.730615 0.228372 
-0.744004 -0.116141 -0.271600 0.010668 0.139541 0.990159 
-0.806947 -0.101891 -0.215469 0.598813 -0.770107 0.219906 
-0.802657 -0.110045 -0.239709 -0.638466 -0.734078 0.231279 
-0.810403 -0.108581 -0.235555 0.606054 -0.787109 0.114710 
-0.106866 -0.112926 -0.250084 0.611911 0.676197 0.410271 
-0.105751 -0.100054 -0.222272 0.631149 -0.732647 0.254714 
-0.107380 -0.107788 -0.222579 -0.610524 -0.790845 0.042715 
-0.114437 -0.113377 -0.255317 -0.604782 -0.771464 0.197692 
-0.114964 -0.109269 -0.227017 -0.867821 -0.490683 0.078212 
-0.116056 -0.105705 -0.257113 -0.823883 0.524827 0.213950 
-0.116585 -0.101338 -0.228684 -0.047517 0.139477 0.989085 
-0.111589 -0.101106 -0.202635 0.600747 0.688815 0.405754 
-0.170758 -0.107758 -0.260744 0.601695 -0.790073 0.117252 
-0.171762 -0.122247 -0.294460 0.636245 -0.729173 0.251991 
-0.172387 -0.115496 -0.261050 -0.630831 -0.775303 0.030961 
-0.179874 -0.122730 -0.300066 -0.610364 -0.765456 0.203797 
-0.179971 -0.116978 -0.265488 -0.817358 0.541091 0.197853 
-0.181592 -0.109042 -0.267156 -0.048885 0.116681 0.991966 
-0.176586 -0.109408 -0.241604 -0.505944 -0.082920 0.858571 
-0.097625 -0.099091 -0.217463 -0.508749 -0.061210 0.858736 
-0.130129 -0.102943 -0.236699 0.638616 0.696347 0.327522 
-0.271270 -0.121393 -0.304032 0.681466 -0.728202 0.072977 
-0.272602 -0.140178 -0.349428 0.668970 -0.702241 0.243592 
-0.272907 -0.130159 -0.303834 -0.522420 -0.851948 0.035527 
-0.279134 -0.141640 -0.351558 -0.612965 -0.756759 0.227134 
-0.280527 -0.131474 -0.306357 -0.807596 0.557043 0.193629 
-0.282156 -0.122983 -0.307657 -0.032586 0.119198 0.992336 
-0.277175 -0.123205 -0.280756 0.635728 0.698413 0.328741 
-0.331141 -0.130138 -0.323972 0.694256 -0.707868 0.130123 
-0.331896 -0.149060 -0.370947 0.667593 -0.703772 0.242951 
-0.332778 -0.139008 -0.323765 -0.611291 -0.759570 0.222207 
-0.340398 -0.140323 -0.326293 -0.586638 -0.804017 0.097022 
-0.339549 -0.150400 -0.371685 -0.806887 0.558325 0.192891 
-0.342027 -0.131727 -0.327597 -0.032212 0.116650 0.992651 
-0.337052 -0.132024 -0.300343 -0.314851 -0.008467 0.949103 
-0.303927 -0.126163 -0.314908 -0.314786 -0.008461 0.949125 
-0.347469 -0.132523 -0.329410 -0.998625 -0.051452 0.009956 
-0.071242 -0.117633 -0.310405 -0.995533 -0.092440 0.019191 
-0.071748 -0.115264 -0.283132 0.999293 -0.036193 0.010169 
-0.065766 -0.117627 -0.310304 0.991211 -0.106870 0.077979 
-0.066273 -0.115258 -0.283031 0.013426 0.642024 -0.766566 
-0.067142 -0.132757 -0.383235 0.607215 0.715704 -0.345047 
-0.065649 -0.127679 -0.375402 -0.595682 0.714347 -0.367248 
-0.068934 -0.127683 -0.375463 0.710111 0.667011 -0.225473 
-0.065056 -0.117671 -0.348772 -0.702810 0.665418 -0.251551 
-0.070532 -0.117677 -0.348873 0.655687 0.722268 -0.220009 
-0.066453 -0.111886 -0.332807 -0.646402 0.717876 -0.258495 
-0.069738 -0.111890 -0.332868 -0.998583 0.052054 -0.011111 
-0.070705 -0.120145 -0.339315 0.998193 0.054305 0.025743 
-0.065230 -0.120139 -0.339214 -0.007313 -0.892610 0.450770 
-0.068917 -0.133738 -0.286972 -0.008245 -0.866189 0.499649 
-0.069218 -0.124679 -0.271272 -0.006019 -0.923915 0.382549 
-0.069518 -0.115619 -0.255571 -0.006762 -0.906687 0.421750 
-0.069818 -0.107651 -0.239775 -0.011100 -0.761565 0.647994 
-0.070019 -0.102884 -0.229198 0.010724 0.777526 -0.628758 
-0.217865 -0.159246 -0.524473 -0.971133 0.170863 -0.166455 
-0.220266 -0.155525 -0.513296 0.976225 0.173061 -0.130514 
-0.215886 -0.155520 -0.513215 -0.993523 0.089441 -0.070094 
-0.220568 -0.150285 -0.497263 0.995228 0.091684 -0.033389 
-0.216188 -0.150280 -0.497183 -0.554461 0.725948 -0.406907 
-0.219170 -0.152796 -0.513513 0.567464 0.727211 -0.386198 
-0.216980 -0.152794 -0.513472 -0.663988 0.661908 -0.347847 
-0.220018 -0.144828 -0.497727 0.674875 0.663421 -0.323137 
-0.216733 -0.144825 -0.497667 -0.998207 0.049420 -0.033776 
-0.221419 -0.148864 -0.480909 0.998660 0.051672 0.003080 
-0.215944 -0.148857 -0.480808 -0.662836 0.687898 -0.295710 
-0.220319 -0.137133 -0.481908 0.671741 0.689406 -0.271079 
-0.217033 -0.137129 -0.481847 -0.640245 0.737788 -0.213906 
-0.219799 -0.131073 -0.465932 -0.992401 0.122258 -0.013949 
-0.220623 -0.136529 -0.465473 0.645459 0.739379 -0.191576 
-0.218156 -0.131071 -0.465901 0.992021 0.124379 0.020582 
-0.217337 -0.136526 -0.465412 -0.998492 0.051610 -0.018731 
-0.221723 -0.147442 -0.464545 0.998414 0.053392 0.017820 
-0.216248 -0.147436 -0.464444 -0.999091 -0.042629 -0.000313 
-0.222128 -0.145546 -0.442726 0.999307 -0.022497 0.029653 
-0.216652 -0.145540 -0.442625 -0.009432 -0.827308 0.561669 
-0.219601 -0.162326 -0.430226 -0.005423 -0.936337 0.351062 
-0.219701 -0.159125 -0.425008 -0.005663 -0.931483 0.363742 
-0.220022 -0.152153 -0.408027 -0.994695 -0.096414 0.035875 
-0.222086 -0.143176 -0.415443 0.992208 -0.103794 0.068931 
-0.217706 -0.143171 -0.415362 -0.002296 -0.962063 0.272816 
-0.220504 -0.142513 -0.382484 0.000226 -0.970498 0.241109 
-0.221007 -0.133051 -0.355827 -0.018704 -0.903078 0.429068 
-0.221510 -0.123589 -0.329170 -0.514745 -0.001033 0.857343 
0.016137 -0.085609 -0.150138 -0.511007 -0.034872 0.858869 
-0.027201 -0.090745 -0.175786 0.573706 -0.811748 -0.109209 
-0.107783 -0.115233 -0.289301 -0.555241 -0.829890 -0.054698 
-0.113806 -0.115240 -0.289412 0.642278 -0.765925 0.028945 
-0.106545 -0.113335 -0.267452 -0.634364 -0.772721 0.022027 
-0.114211 -0.113344 -0.267593 -0.947888 -0.307335 0.083981 
-0.115850 -0.106029 -0.268259 0.498376 -0.862207 -0.090671 
-0.173327 -0.122444 -0.328375 -0.544868 -0.838185 -0.023765 
-0.178802 -0.122450 -0.328476 0.627856 -0.778185 -0.015023 
-0.171441 -0.122111 -0.311876 -0.652948 -0.756910 -0.027300 
-0.179654 -0.122120 -0.312027 0.722898 -0.690404 -0.027581 
-0.273301 -0.139018 -0.371013 -0.453558 -0.891215 0.004558 
-0.278712 -0.140691 -0.374487 0.512836 -0.852003 -0.105303 
-0.274505 -0.139703 -0.394726 -0.505680 -0.860742 -0.058401 
-0.278885 -0.139708 -0.394807 0.518436 -0.849711 0.096003 
-0.332549 -0.151771 -0.394755 -0.575086 -0.817560 0.029505 
-0.338024 -0.151777 -0.394856 0.403359 -0.914864 0.018002 
-0.332819 -0.151428 -0.409798 -0.492564 -0.867136 0.073865 
-0.338230 -0.152829 -0.413296 0.460941 -0.886847 -0.032196 
-0.333036 -0.153251 -0.427622 -0.575339 -0.817497 -0.026155 
-0.338511 -0.153257 -0.427723 0.307127 -0.898622 -0.313291 
-0.335023 -0.152292 -0.438737 -0.497167 -0.829361 -0.254923 
-0.338308 -0.152296 -0.438798 0.319582 -0.930912 -0.176833 
-0.257006 -0.140834 -0.482191 0.351538 -0.913727 -0.203776 
-0.278538 -0.144480 -0.502381 0.393404 -0.886089 -0.245109 
-0.300069 -0.148126 -0.522571 0.425241 -0.855641 -0.295038 
-0.321601 -0.151772 -0.542761 -0.209307 0.967607 0.141165 
-0.123319 -0.099335 -0.249752 -0.201302 0.970839 0.130192 
-0.150371 -0.102654 -0.267645 -0.196147 0.973051 0.121234 
-0.177422 -0.105975 -0.285537 -0.170156 0.982149 0.080193 
-0.295291 -0.122259 -0.337925 -0.350567 0.134449 0.926836 
-0.341819 0.011788 0.245888 -0.328857 0.112802 0.937619 
-0.390848 0.000946 0.232197 -0.312667 0.115484 0.942816 
-0.423534 -0.005945 0.223041 0.722853 -0.623364 0.298161 
-0.414674 -0.142884 -0.248611 0.447261 -0.848770 0.282040 
-0.422638 -0.152807 -0.261641 0.695935 -0.695768 0.177712 
-0.416066 -0.147617 -0.261970 0.850379 -0.501158 0.160303 
-0.410587 -0.140791 -0.262461 0.200243 -0.952043 0.231337 
-0.436076 -0.160008 -0.275009 0.368854 -0.909977 0.189442 
-0.425125 -0.158359 -0.274949 0.685015 -0.706260 0.178747 
-0.416909 -0.151803 -0.275366 0.806371 -0.569922 0.157971 
-0.410883 -0.144704 -0.275871 0.931818 -0.335127 0.139301 
-0.405951 -0.136515 -0.276491 -0.005846 -0.991678 0.128612 
-0.443338 -0.164095 -0.296780 0.246385 -0.945948 0.210897 
-0.429102 -0.164079 -0.296517 0.538705 -0.810664 0.229394 
-0.419244 -0.158885 -0.296786 0.699307 -0.681241 0.216518 
-0.413767 -0.154241 -0.297087 0.810660 -0.549150 0.203137 
-0.408289 -0.147688 -0.297555 0.911816 -0.378535 0.159075 
-0.404453 -0.141137 -0.298053 0.971388 -0.206968 0.116482 
-0.402808 -0.135680 -0.298497 0.993420 -0.052464 0.101805 
-0.401435 -0.127495 -0.299182 -0.000935 -0.993776 0.111394 
-0.443481 -0.167082 -0.318514 0.111120 -0.985638 0.127161 
-0.428698 -0.167066 -0.318241 0.417703 -0.882784 0.214982 
-0.418020 -0.164326 -0.318281 0.672754 -0.694943 0.253881 
-0.410626 -0.158862 -0.318619 0.838175 -0.488892 0.241758 
-0.404052 -0.151216 -0.319161 0.947734 -0.253557 0.193675 
-0.401859 -0.145758 -0.319594 0.987914 -0.081958 0.131562 
-0.400486 -0.137573 -0.320280 0.997264 -0.012437 0.072870 
-0.400209 -0.129389 -0.320986 0.771434 -0.617703 0.152755 
-0.403700 -0.158331 -0.337778 0.918515 -0.374626 0.126433 
-0.399865 -0.152871 -0.338182 0.995454 -0.034043 0.088952 
-0.397504 -0.139229 -0.339323 0.990900 0.062906 0.118997 
-0.398593 -0.126682 -0.340433 0.924369 -0.378208 0.050010 
-0.399740 -0.153454 -0.344891 0.776622 -0.626197 0.068813 
-0.403576 -0.158914 -0.344488 0.920854 -0.385882 0.055881 
-0.399460 -0.154766 -0.360001 0.885927 -0.460762 0.053229 
-0.398903 -0.157373 -0.390001 0.005423 -0.996214 0.086757 
-0.439939 -0.183559 -0.509439 0.104614 -0.990606 0.088067 
-0.425156 -0.183488 -0.509170 0.361438 -0.928295 0.087354 
-0.414204 -0.181184 -0.509167 0.531419 -0.843024 0.083099 
-0.408179 -0.177631 -0.509364 0.653630 -0.752833 0.077531 
-0.401607 -0.173259 -0.509622 0.778484 -0.623814 0.069429 
-0.396677 -0.167798 -0.510005 0.793149 -0.581288 0.181716 
-0.397841 -0.162348 -0.447276 0.005377 -0.996224 0.086649 
-0.438859 -0.188616 -0.567640 0.104664 -0.990606 0.088003 
-0.424076 -0.188544 -0.567372 0.372430 -0.925898 0.063320 
-0.413124 -0.186241 -0.567369 0.530915 -0.846135 0.046757 
-0.407100 -0.182688 -0.567566 0.656536 -0.753501 0.034597 
-0.400527 -0.178316 -0.567824 0.761419 -0.647710 0.026674 
-0.395597 -0.172855 -0.568207 0.016967 -0.999488 0.027120 
-0.437982 -0.192119 -0.614930 0.148457 -0.986807 -0.064604 
-0.423939 -0.192235 -0.633902 0.008546 -0.996956 0.077499 
-0.438421 -0.190668 -0.591259 0.162706 -0.984622 0.063606 
-0.423637 -0.190596 -0.590991 0.420674 -0.906737 0.029351 
-0.414875 -0.187477 -0.591100 0.569521 -0.821977 0.000307 
-0.407208 -0.183104 -0.591337 0.683958 -0.729314 -0.017382 
-0.400635 -0.177640 -0.591690 0.788662 -0.613705 -0.037117 
-0.395431 -0.172179 -0.592068 0.204765 -0.978224 0.033909 
-0.423199 -0.191994 -0.614667 0.470449 -0.881958 0.028775 
-0.415806 -0.188712 -0.614815 0.582395 -0.812562 0.023624 
-0.409507 -0.184613 -0.615054 0.711312 -0.702876 0.001047 
-0.403208 -0.179696 -0.615364 0.868397 -0.492850 -0.054646 
-0.397182 -0.171506 -0.615964 0.408730 -0.912488 -0.017493 
-0.416272 -0.189553 -0.633993 0.556879 -0.830311 -0.021667 
-0.410248 -0.186273 -0.634166 0.707646 -0.706359 -0.017107 
-0.403949 -0.181356 -0.634476 0.882238 -0.467647 -0.054430 
-0.397922 -0.173165 -0.635076 0.977745 -0.190108 -0.088738 
-0.393811 -0.162249 -0.635948 0.962066 -0.243212 -0.123600 
-0.393070 -0.160590 -0.616836 0.994958 0.073362 -0.068390 
-0.393806 -0.151338 -0.636896 0.348676 -0.930179 -0.114854 
-0.416458 -0.188513 -0.653658 0.727570 -0.684479 -0.046162 
-0.403861 -0.179770 -0.654184 0.932296 -0.360600 -0.028150 
-0.397286 -0.169396 -0.654963 0.502346 -0.853339 -0.139504 
-0.410782 -0.184525 -0.664675 0.792271 -0.598194 -0.120290 
-0.401470 -0.175786 -0.665262 0.942245 -0.289655 -0.168153 
-0.397908 -0.168689 -0.665812 0.812820 -0.535133 -0.230123 
-0.402372 -0.173960 -0.675883 -0.964284 0.227025 -0.136439 
-0.499802 -0.125594 -0.823927 -0.986448 0.101512 -0.128905 
-0.500599 -0.132769 -0.823318 -0.989247 0.071897 -0.127367 
-0.501438 -0.139944 -0.822711 -0.967946 0.240884 -0.071113 
-0.504516 -0.121084 -0.772040 -0.992579 0.106228 -0.059186 
-0.505355 -0.128260 -0.771432 -0.998640 0.014662 -0.050024 
-0.506125 -0.135435 -0.770823 -0.956550 0.283962 -0.066169 
-0.507029 -0.116435 -0.718530 -0.994046 0.096711 -0.050202 
-0.507799 -0.123610 -0.717921 -0.999178 -0.003576 -0.040376 
-0.508487 -0.130785 -0.717311 -0.954638 0.295809 -0.034117 
-0.508568 -0.111796 -0.665139 -0.993834 0.108458 -0.023032 
-0.509475 -0.118971 -0.664532 -0.999829 -0.001665 -0.018406 
-0.510162 -0.126146 -0.663922 -0.999685 0.015350 -0.019883 
-0.510875 -0.122810 -0.625520 -0.991991 0.122912 -0.029084 
-0.509968 -0.115635 -0.626127 -0.991991 0.122914 -0.029084 
-0.510583 -0.112754 -0.592962 -0.951024 0.305938 -0.044224 
-0.509382 -0.106960 -0.609469 -0.999121 0.035907 -0.021658 
-0.511490 -0.119929 -0.592356 -0.951024 0.305937 -0.044225 
-0.511086 -0.098980 -0.517612 -0.991991 0.122914 -0.029085 
-0.511993 -0.106155 -0.517005 -0.997853 0.061013 -0.023816 
-0.512900 -0.113330 -0.516399 -0.951023 0.305939 -0.044225 
-0.513104 -0.089530 -0.408845 -0.991992 0.122911 -0.029084 
-0.514011 -0.096706 -0.408238 -0.997853 0.061014 -0.023816 
-0.514918 -0.103881 -0.407632 -0.951024 0.305937 -0.044225 
-0.515022 -0.080550 -0.305478 -0.991991 0.122913 -0.029085 
-0.515929 -0.087725 -0.304872 -0.998905 -0.044423 -0.014676 
-0.516545 -0.096263 -0.319947 -0.991991 0.122913 -0.029085 
-0.515638 -0.089088 -0.320554 -0.951023 0.305939 -0.044225 
-0.517042 -0.071094 -0.196629 -0.991991 0.122911 -0.029084 
-0.517949 -0.078269 -0.196023 -0.998560 0.048582 -0.022749 
-0.518855 -0.085444 -0.195416 0.998607 0.050830 0.014113 
-0.400261 -0.085310 -0.193227 0.992109 0.125150 0.007536 
-0.401161 -0.078137 -0.193867 0.951315 0.308086 -0.009114 
-0.402061 -0.070964 -0.194507 0.998348 0.055804 0.013676 
-0.398940 -0.091499 -0.264466 0.992109 0.125152 0.007536 
-0.398851 -0.088956 -0.318398 0.992109 0.125150 0.007536 
-0.399142 -0.087594 -0.302716 0.951316 0.308080 -0.009114 
-0.400042 -0.080421 -0.303356 0.997912 0.063260 0.013020 
-0.396324 -0.103747 -0.405443 0.992109 0.125150 0.007536 
-0.397224 -0.096574 -0.406083 0.951315 0.308086 -0.009114 
-0.398124 -0.089401 -0.406723 0.997912 0.063262 0.013020 
-0.394305 -0.113196 -0.514210 0.992109 0.125150 0.007536 
-0.395206 -0.106023 -0.514850 0.951315 0.308086 -0.009114 
-0.396106 -0.098850 -0.515490 0.999156 0.038161 0.015224 
-0.392896 -0.119795 -0.590167 0.992109 0.125151 0.007535 
-0.393796 -0.112622 -0.590807 0.992109 0.125151 0.007536 
-0.393181 -0.115503 -0.623971 0.951316 0.308083 -0.009114 
-0.394401 -0.106830 -0.607347 0.999700 0.017605 0.017020 
-0.392281 -0.122676 -0.623331 0.993759 0.110703 0.013652 
-0.392249 -0.118839 -0.662368 0.999829 0.000585 0.018500 
-0.391568 -0.126013 -0.661733 0.954575 0.297967 0.001121 
-0.393149 -0.111666 -0.663008 0.999993 -0.001328 -0.003477 
-0.391262 -0.130653 -0.715147 0.995000 0.098953 -0.013490 
-0.391943 -0.123479 -0.715783 0.957696 0.286122 -0.030838 
-0.392706 -0.116306 -0.716420 0.999771 0.016916 -0.013139 
-0.391637 -0.135306 -0.768710 0.993845 0.108466 -0.022523 
-0.392400 -0.128132 -0.769348 0.969365 0.243070 -0.035357 
-0.393232 -0.120959 -0.769986 0.993109 0.074130 -0.090779 
-0.394396 -0.139824 -0.820735 0.990301 0.103743 -0.092420 
-0.395228 -0.132650 -0.821374 0.968148 0.229203 -0.100772 
-0.396018 -0.125477 -0.822011 -0.046091 0.994992 -0.088698 
-0.449936 -0.067299 -0.828066 -0.141361 0.985764 -0.091036 
-0.451989 -0.067356 -0.828099 0.000472 0.996248 -0.086542 
-0.447882 -0.067160 -0.828040 -0.243749 0.965420 -0.092474 
-0.455411 -0.068260 -0.828084 -0.281617 0.954954 -0.093564 
-0.458834 -0.069082 -0.828076 -0.220458 0.969727 -0.105009 
-0.461572 -0.070040 -0.828044 -0.340661 0.933283 -0.113722 
-0.464310 -0.070343 -0.828068 -0.539011 0.835209 -0.109051 
-0.468417 -0.073075 -0.827907 -0.644920 0.756640 -0.107575 
-0.473073 -0.075945 -0.827744 -0.753192 0.650262 -0.099299 
-0.476908 -0.080314 -0.827436 -0.828185 0.552460 -0.094337 
-0.481290 -0.085365 -0.827078 -0.859457 0.499302 -0.109687 
-0.485346 -0.093280 -0.826466 -0.827563 0.550118 -0.111842 
-0.488271 -0.090736 -0.797191 -0.877065 0.463033 -0.127898 
-0.490688 -0.101197 -0.825878 -0.994231 -0.018362 -0.105676 
-0.501797 -0.147037 -0.822101 -0.979732 -0.185602 -0.075358 
-0.501308 -0.154129 -0.821476 -0.964476 -0.252342 -0.078171 
-0.499340 -0.160673 -0.820871 -0.903405 -0.423651 -0.066160 
-0.497974 -0.167219 -0.820277 -0.828255 -0.556259 -0.067593 
-0.492693 -0.174032 -0.819587 -0.729254 -0.681596 -0.060132 
-0.488864 -0.180847 -0.818924 -0.628926 -0.774864 -0.063542 
-0.481749 -0.185613 -0.818378 -0.701981 -0.710360 -0.051110 
-0.486811 -0.185117 -0.788964 -0.538228 -0.839139 -0.078473 
-0.474908 -0.192425 -0.817659 -0.414823 -0.907167 -0.070496 
-0.468681 -0.194830 -0.817335 -0.473879 -0.879287 -0.047892 
-0.472443 -0.196012 -0.787751 -0.334729 -0.938906 -0.080073 
-0.461154 -0.198914 -0.816840 -0.123738 -0.991371 -0.043260 
-0.456159 -0.199905 -0.816661 0.001529 -0.999763 -0.021740 
-0.447946 -0.200360 -0.816469 0.000111 0.997755 -0.066967 
-0.448847 -0.063091 -0.776045 -0.026535 0.997371 -0.067435 
-0.450900 -0.063148 -0.776079 -0.130568 0.989049 -0.068805 
-0.452953 -0.063205 -0.776112 -0.218311 0.973239 -0.071734 
-0.456376 -0.064027 -0.776104 -0.156429 0.984930 -0.073777 
-0.459798 -0.064740 -0.776105 -0.221166 0.973365 -0.060385 
-0.462536 -0.065043 -0.776130 -0.430345 0.901455 -0.046700 
-0.465274 -0.066001 -0.776097 -0.449304 0.890824 -0.067521 
-0.469929 -0.068870 -0.775935 -0.579006 0.809843 -0.094367 
-0.475679 -0.071160 -0.775842 -0.751939 0.652121 -0.096565 
-0.480062 -0.076211 -0.775485 -0.790258 0.605215 -0.095953 
-0.484171 -0.080853 -0.775158 -0.831936 0.547410 -0.090686 
-0.489513 -0.088770 -0.774569 -0.835992 0.544732 -0.066217 
-0.490617 -0.086804 -0.751945 -0.884749 0.458611 -0.083039 
-0.494718 -0.096687 -0.773978 -0.995660 -0.085419 -0.036967 
-0.505636 -0.142526 -0.770198 -0.987956 -0.152430 -0.026610 
-0.504955 -0.149618 -0.769569 -0.977133 -0.211757 -0.019246 
-0.503589 -0.156163 -0.768975 -0.934072 -0.357068 -0.003263 
-0.502141 -0.162708 -0.768380 -0.897479 -0.440829 -0.014170 
-0.498311 -0.169524 -0.767717 -0.828228 -0.560139 -0.016843 
-0.495440 -0.176340 -0.767071 -0.727326 -0.686194 -0.011597 
-0.488599 -0.183152 -0.766353 -0.749131 -0.662356 -0.009368 
-0.490252 -0.182278 -0.743643 -0.621794 -0.783036 -0.015106 
-0.481622 -0.191055 -0.765537 -0.423808 -0.905353 0.026920 
-0.474096 -0.195138 -0.765042 -0.368785 -0.928328 0.046971 
-0.473969 -0.193853 -0.742336 -0.215515 -0.974871 0.056390 
-0.464790 -0.198810 -0.764550 -0.087034 -0.995159 0.045643 
-0.456577 -0.199264 -0.764359 0.000446 -0.999318 0.036932 
-0.448912 -0.200164 -0.764138 -0.000342 0.999094 -0.042543 
-0.449841 -0.060248 -0.722350 -0.026966 0.998710 -0.043019 
-0.451894 -0.060305 -0.722383 -0.115821 0.992278 -0.044390 
-0.453947 -0.060362 -0.722417 -0.218642 0.974820 -0.043834 
-0.457370 -0.061075 -0.722418 -0.282270 0.958387 -0.042643 
-0.460792 -0.061897 -0.722410 -0.329082 0.943320 -0.043046 
-0.463530 -0.062855 -0.722378 -0.349099 0.936087 -0.043257 
-0.466268 -0.063805 -0.722346 -0.273276 0.959860 -0.063164 
-0.472019 -0.066094 -0.722254 -0.488960 0.869707 -0.067293 
-0.476673 -0.066918 -0.722269 -0.733693 0.677546 -0.051239 
-0.480782 -0.071560 -0.721942 -0.780331 0.623256 -0.051337 
-0.485301 -0.076202 -0.721622 -0.853015 0.520869 -0.032560 
-0.490506 -0.084119 -0.721031 -0.868902 0.494377 -0.024503 
-0.489711 -0.081433 -0.690105 -0.899698 0.436262 -0.014750 
-0.495027 -0.092035 -0.720427 -0.994638 -0.098353 -0.031956 
-0.507806 -0.137877 -0.716682 -0.987031 -0.158341 -0.026434 
-0.507125 -0.144968 -0.716053 -0.979711 -0.198592 -0.027000 
-0.505677 -0.151513 -0.715458 -0.957970 -0.285974 -0.022658 
-0.504503 -0.158059 -0.714867 -0.919344 -0.393320 -0.010292 
-0.501632 -0.164875 -0.714222 -0.913249 -0.381164 0.143839 
-0.502616 -0.163282 -0.683233 -0.844243 -0.535960 0.000729 
-0.498214 -0.172782 -0.713471 -0.754188 -0.656615 0.007638 
-0.491236 -0.180685 -0.712655 -0.756681 -0.653423 -0.021749 
-0.492631 -0.178819 -0.681698 -0.580288 -0.814089 0.022903 
-0.484670 -0.188315 -0.711871 -0.358279 -0.932593 0.043659 
-0.475364 -0.191987 -0.711379 -0.344364 -0.893704 0.287589 
-0.476485 -0.189985 -0.680429 -0.234657 -0.970561 0.054280 
-0.465784 -0.195523 -0.710894 -0.113718 -0.991631 0.061123 
-0.458119 -0.196422 -0.710674 -0.000071 -0.997898 0.064812 
-0.449906 -0.197313 -0.710444 -0.001372 0.999911 0.013241 
-0.450834 -0.059229 -0.668634 -0.039495 0.999123 0.013927 
-0.453571 -0.059368 -0.668673 -0.145359 0.989332 0.009665 
-0.455625 -0.059425 -0.668706 -0.247189 0.968948 0.006122 
-0.458362 -0.060165 -0.668693 -0.172197 0.985012 0.009893 
-0.461785 -0.060987 -0.668685 -0.220388 0.975401 -0.004685 
-0.464523 -0.061290 -0.668709 -0.371295 0.928277 -0.021020 
-0.467261 -0.062240 -0.668678 -0.296601 0.954912 0.013101 
-0.472737 -0.064728 -0.668563 -0.437827 0.898615 0.028226 
-0.477392 -0.065552 -0.668578 -0.692698 0.721225 -0.001387 
-0.480130 -0.068010 -0.668415 -0.773485 0.633789 -0.005761 
-0.484650 -0.072652 -0.668096 -0.847563 0.530478 -0.015181 
-0.489334 -0.079477 -0.667589 -0.843192 0.536629 -0.032515 
-0.493855 -0.087393 -0.666986 -0.995284 -0.096476 -0.010086 
-0.509481 -0.133238 -0.663293 -0.993187 -0.116231 -0.008331 
-0.508800 -0.140330 -0.662664 -0.979269 -0.198857 0.038559 
-0.508274 -0.144809 -0.649373 -0.999192 -0.039668 0.006467 
-0.507399 -0.147945 -0.649084 -0.987471 -0.157191 -0.013863 
-0.507856 -0.146764 -0.671874 -0.968244 -0.249853 -0.008731 
-0.506682 -0.153310 -0.671283 -0.400039 -0.885035 0.238079 
-0.478442 -0.187881 -0.678366 -0.380674 -0.913724 -0.142114 
-0.483371 -0.185876 -0.671128 -0.382539 -0.923929 -0.004485 
-0.471833 -0.191515 -0.672705 -0.214608 -0.975621 0.045889 
-0.466732 -0.192954 -0.667098 -0.094179 -0.994047 0.054791 
-0.458519 -0.193845 -0.666868 -0.040664 -0.998572 0.034647 
-0.458937 -0.192354 -0.644327 -0.000093 -0.997820 0.066003 
-0.450898 -0.193811 -0.656943 -0.100956 -0.994285 0.034738 
-0.463591 -0.192346 -0.644414 -0.076193 0.995043 0.063916 
-0.454608 -0.061807 -0.612376 -0.002296 0.997982 0.063458 
-0.451870 -0.061668 -0.612337 -0.180946 0.981468 0.063084 
-0.457345 -0.062083 -0.612402 -0.204830 0.977104 0.057558 
-0.460083 -0.062823 -0.612389 -0.129699 0.990026 0.055011 
-0.462821 -0.063235 -0.612404 -0.176615 0.982498 0.059197 
-0.465559 -0.063538 -0.612428 -0.328410 0.942674 0.059270 
-0.468297 -0.064223 -0.612420 -0.371139 0.927262 0.049406 
-0.473773 -0.066712 -0.612305 -0.506837 0.860440 0.052530 
-0.476511 -0.067670 -0.612273 -0.543720 0.838430 0.037469 
-0.479250 -0.070128 -0.612110 -0.639454 0.768215 0.030709 
-0.481988 -0.071358 -0.612054 -0.708757 0.705396 -0.008913 
-0.486673 -0.078183 -0.611548 -0.703588 0.708789 -0.050815 
-0.492972 -0.082555 -0.611285 -0.995461 -0.094511 -0.011150 
-0.510249 -0.129629 -0.624916 -0.983101 -0.183044 -0.002580 
-0.509567 -0.136721 -0.624288 -0.997185 -0.018041 -0.072773 
-0.508693 -0.139857 -0.623999 -0.999132 -0.027563 -0.031218 
-0.511371 -0.124619 -0.583699 -0.998824 -0.003721 -0.048345 
-0.511373 -0.129393 -0.583285 -0.996992 -0.073070 -0.025840 
-0.511051 -0.126119 -0.600963 0.000474 0.996248 -0.086542 
-0.453577 -0.058707 -0.520044 -0.099016 0.991192 -0.087949 
-0.456314 -0.058983 -0.520070 -0.123469 0.988425 -0.088162 
-0.459052 -0.059258 -0.520097 -0.147847 0.985059 -0.088322 
-0.461790 -0.059671 -0.520112 -0.195167 0.976771 -0.088480 
-0.464528 -0.060083 -0.520127 -0.242036 0.966229 -0.088434 
-0.467266 -0.060768 -0.520118 -0.286241 0.954089 -0.088199 
-0.470004 -0.061453 -0.520110 -0.329846 0.939945 -0.087779 
-0.472742 -0.062411 -0.520077 -0.370199 0.924849 -0.087217 
-0.475480 -0.063369 -0.520045 -0.409861 0.908038 -0.086492 
-0.478218 -0.064599 -0.519989 -0.492322 0.866311 -0.084397 
-0.480956 -0.065830 -0.519933 -0.570578 0.817181 -0.081581 
-0.487255 -0.070202 -0.519670 -0.660103 0.747202 -0.077163 
-0.493554 -0.074573 -0.519407 0.000474 0.996248 -0.086542 
-0.455595 -0.049257 -0.411277 -0.099016 0.991192 -0.087949 
-0.458333 -0.049533 -0.411303 -0.123469 0.988425 -0.088162 
-0.461070 -0.049809 -0.411330 -0.147847 0.985059 -0.088322 
-0.463808 -0.050221 -0.411345 -0.195167 0.976771 -0.088480 
-0.466546 -0.050634 -0.411360 -0.242035 0.966229 -0.088434 
-0.469284 -0.051319 -0.411352 -0.286241 0.954089 -0.088199 
-0.472022 -0.052004 -0.411343 -0.329847 0.939945 -0.087780 
-0.474760 -0.052962 -0.411310 -0.370197 0.924850 -0.087217 
-0.477498 -0.053919 -0.411278 -0.409861 0.908038 -0.086492 
-0.480236 -0.055150 -0.411222 -0.492325 0.866310 -0.084397 
-0.482974 -0.056381 -0.411166 -0.570578 0.817181 -0.081581 
-0.489273 -0.060752 -0.410903 -0.660102 0.747203 -0.077162 
-0.495572 -0.065124 -0.410640 0.000473 0.996248 -0.086542 
-0.457513 -0.040277 -0.307910 -0.099016 0.991192 -0.087949 
-0.460251 -0.040553 -0.307937 -0.123468 0.988425 -0.088162 
-0.462988 -0.040829 -0.307963 -0.147847 0.985059 -0.088322 
-0.465726 -0.041241 -0.307978 -0.195167 0.976770 -0.088480 
-0.468464 -0.041654 -0.307993 -0.242035 0.966229 -0.088434 
-0.471202 -0.042339 -0.307985 -0.286243 0.954089 -0.088199 
-0.473940 -0.043024 -0.307976 -0.329847 0.939945 -0.087780 
-0.476678 -0.043981 -0.307944 -0.370198 0.924849 -0.087217 
-0.479416 -0.044939 -0.307911 -0.409861 0.908038 -0.086492 
-0.482154 -0.046170 -0.307855 -0.492321 0.866312 -0.084397 
-0.484892 -0.047400 -0.307799 -0.570578 0.817181 -0.081581 
-0.491191 -0.051772 -0.307536 -0.660104 0.747201 -0.077162 
-0.497490 -0.056144 -0.307273 -0.999829 -0.001125 -0.018454 
-0.512406 -0.125211 -0.542434 -0.999829 -0.001128 -0.018454 
-0.512403 -0.120438 -0.542849 -0.999829 -0.001128 -0.018453 
-0.513493 -0.115339 -0.484156 -0.999829 -0.001128 -0.018453 
-0.513495 -0.120112 -0.483741 -0.999829 -0.001129 -0.018454 
-0.514922 -0.113428 -0.406802 -0.999830 -0.001125 -0.018454 
-0.514920 -0.108654 -0.407217 0.000475 0.996248 -0.086542 
-0.459532 -0.030821 -0.199061 -0.099016 0.991192 -0.087949 
-0.462270 -0.031097 -0.199088 -0.123468 0.988425 -0.088162 
-0.465008 -0.031373 -0.199115 -0.147846 0.985059 -0.088322 
-0.467746 -0.031785 -0.199130 -0.195166 0.976772 -0.088480 
-0.470484 -0.032197 -0.199145 -0.242035 0.966229 -0.088434 
-0.473222 -0.032882 -0.199136 -0.286243 0.954089 -0.088199 
-0.475959 -0.033567 -0.199127 -0.329847 0.939945 -0.087780 
-0.478698 -0.034525 -0.199095 -0.370198 0.924849 -0.087217 
-0.481436 -0.035483 -0.199062 -0.409860 0.908038 -0.086492 
-0.484174 -0.036713 -0.199006 -0.492322 0.866312 -0.084397 
-0.486912 -0.037944 -0.198950 -0.570578 0.817181 -0.081581 
-0.493211 -0.042316 -0.198687 -0.660104 0.747202 -0.077162 
-0.499509 -0.046687 -0.198424 -0.249550 -0.946045 0.206699 
-0.478362 -0.158645 -0.269040 -0.037584 -0.985601 0.164862 
-0.465770 -0.160268 -0.268665 -0.000474 -0.996248 0.086541 
-0.458396 -0.159170 -0.252818 -0.071708 -0.993797 0.085007 
-0.466061 -0.158633 -0.253007 -0.180825 -0.980108 0.081793 
-0.473726 -0.158096 -0.253196 -0.287753 -0.954557 0.077589 
-0.479200 -0.156465 -0.253439 -0.426049 -0.901952 0.070452 
-0.484675 -0.154835 -0.253682 -0.424690 -0.881522 0.206293 
-0.489973 -0.151472 -0.256134 -0.894746 -0.446027 0.022147 
-0.510397 -0.130040 -0.256313 -0.953560 -0.301083 0.008463 
-0.511217 -0.127450 -0.256554 -0.951148 -0.308602 0.009161 
-0.511910 -0.125452 -0.263612 -0.948672 -0.316108 0.009860 
-0.513004 -0.122180 -0.263917 -0.952575 -0.304180 0.008751 
-0.514097 -0.118908 -0.264222 -0.956327 -0.292201 0.007641 
-0.515601 -0.113999 -0.264676 -0.985648 -0.168772 -0.003627 
-0.517104 -0.109091 -0.265130 -0.998983 -0.042600 -0.014835 
-0.517239 -0.105818 -0.265417 -0.999441 -0.029338 -0.015996 
-0.517375 -0.102544 -0.265704 -0.999724 -0.016069 -0.017153 
-0.517454 -0.097089 -0.266179 -0.998297 0.053552 -0.023175 
-0.517534 -0.091633 -0.266655 -0.952575 -0.304178 0.008752 
-0.513604 -0.121218 -0.290813 -0.989991 -0.131430 0.051423 
-0.512510 -0.124490 -0.290509 -0.968615 -0.247822 -0.019220 
-0.515107 -0.116309 -0.291268 -0.990768 -0.124952 -0.052597 
-0.515450 -0.112075 -0.302637 -0.997208 -0.074653 0.002249 
-0.513744 -0.117931 -0.313092 -0.995482 -0.080052 -0.051065 
-0.515585 -0.108802 -0.302924 -0.996657 -0.066426 -0.047553 
-0.515407 -0.106630 -0.312731 -0.997869 -0.057476 -0.030894 
-0.513908 -0.111525 -0.334269 -0.992985 -0.115366 -0.025937 
-0.515486 -0.101175 -0.313206 -0.999529 -0.026026 -0.016285 
-0.519274 -0.088312 -0.165157 -0.999655 -0.020965 -0.015808 
-0.518243 -0.093139 -0.220713 -0.999102 -0.040269 -0.013203 
-0.518163 -0.098594 -0.220238 -0.998515 -0.053416 -0.010768 
-0.517946 -0.102004 -0.219938 -0.982738 -0.184998 0.001505 
-0.517811 -0.105277 -0.219651 -0.951359 -0.307727 0.014907 
-0.516170 -0.110049 -0.219206 -0.943365 -0.331158 0.019937 
-0.514667 -0.114957 -0.218751 -0.939139 -0.342706 0.023888 
-0.513573 -0.117684 -0.218494 -0.939160 -0.342395 0.027276 
-0.512480 -0.120956 -0.218190 -0.941864 -0.334640 0.030132 
-0.511386 -0.123683 -0.217933 -0.914539 -0.402476 0.040388 
-0.510566 -0.126273 -0.217692 -0.839951 -0.540499 0.048413 
-0.508651 -0.129544 -0.217373 -0.803605 -0.593247 0.047706 
-0.506599 -0.132406 -0.217086 -0.751858 -0.656291 0.063195 
-0.503863 -0.135949 -0.216727 -0.688745 -0.721016 0.075933 
-0.498391 -0.141399 -0.216152 -0.598286 -0.797165 0.081132 
-0.495654 -0.143851 -0.215888 -0.538787 -0.837673 0.089512 
-0.490728 -0.146846 -0.215537 -0.446765 -0.888838 0.101825 
-0.485391 -0.150386 -0.215130 -0.309743 -0.944794 0.106890 
-0.479917 -0.152289 -0.214863 -0.189970 -0.975796 0.108322 
-0.474442 -0.153920 -0.214620 -0.080989 -0.990654 0.109753 
-0.466777 -0.154593 -0.214419 -0.000897 -0.994007 0.109317 
-0.459112 -0.155130 -0.214231 -0.998803 -0.046720 -0.014474 
-0.519139 -0.093768 -0.164681 -0.997737 -0.066062 -0.012604 
-0.518922 -0.097041 -0.164392 -0.984188 -0.177117 -0.001935 
-0.518705 -0.100450 -0.164092 -0.952004 -0.306011 0.006669 
-0.517229 -0.105359 -0.163638 -0.928291 -0.371742 0.009154 
-0.515588 -0.110131 -0.163193 -0.918752 -0.394576 0.014336 
-0.514330 -0.112857 -0.162933 -0.912277 -0.409152 0.018619 
-0.513237 -0.115584 -0.162676 -0.912359 -0.408716 0.023515 
-0.511869 -0.118310 -0.162414 -0.864233 -0.501750 0.036733 
-0.510775 -0.121037 -0.162156 -0.824858 -0.562914 0.052322 
-0.508586 -0.123762 -0.161879 -0.772927 -0.630584 0.070334 
-0.506672 -0.127033 -0.161559 -0.685133 -0.723128 0.087632 
-0.502020 -0.131120 -0.161118 -0.609678 -0.785074 0.109317 
-0.496547 -0.136569 -0.160543 -0.511772 -0.849909 0.125477 
-0.491347 -0.139564 -0.160186 -0.376299 -0.915656 0.141328 
-0.486421 -0.142559 -0.159835 -0.276327 -0.947495 0.160930 
-0.480946 -0.143780 -0.159627 -0.203878 -0.962640 0.178204 
-0.475472 -0.145684 -0.159360 -0.082017 -0.979075 0.186241 
-0.467807 -0.146220 -0.159171 -0.002416 -0.981610 0.190881 
-0.460141 -0.146894 -0.158970 0.170272 0.979644 0.106325 
-0.522182 -0.137674 -0.359205 0.170262 0.979646 0.106325 
-0.518960 -0.138132 -0.360147 -0.645153 0.760992 0.068336 
-0.515738 -0.138590 -0.361089 0.171277 0.982774 0.069420 
-0.517973 -0.134059 -0.413866 -0.648883 0.759907 0.038622 
-0.514751 -0.134517 -0.414808 0.169938 0.982511 0.076120 
-0.543362 -0.130389 -0.399125 0.163671 0.985230 0.050332 
-0.539389 -0.128129 -0.440918 0.149934 0.988004 0.036992 
-0.538937 -0.127406 -0.465437 -0.649676 0.759995 0.018143 
-0.513500 -0.130724 -0.482819 0.119764 0.992803 -0.000522 
-0.538437 -0.126330 -0.492598 0.091384 0.995050 -0.039034 
-0.537890 -0.127706 -0.522156 -0.672973 0.738629 -0.039152 
-0.512408 -0.130803 -0.541948 -0.013033 0.986354 -0.164122 
-0.537299 -0.128862 -0.554124 0.167416 0.981226 0.095745 
-0.543977 -0.133189 -0.365631 -0.622145 0.233013 -0.747423 
-0.550888 -0.145804 -0.583884 -0.531567 0.494442 -0.687723 
-0.550906 -0.143283 -0.583071 -0.518003 0.522730 -0.677072 
-0.519856 -0.144751 -0.607959 -0.509278 0.554454 -0.658192 
-0.522640 -0.144337 -0.605509 -0.420100 0.714033 -0.560064 
-0.536603 -0.140559 -0.591112 -0.451411 0.652262 -0.608920 
-0.548164 -0.141989 -0.583371 -0.399656 0.713971 -0.574910 
-0.550948 -0.141575 -0.580921 -0.319953 0.830922 -0.455192 
-0.536653 -0.139095 -0.588491 -0.272758 0.872850 -0.404643 
-0.536713 -0.137447 -0.585337 -0.273364 0.869146 -0.412139 
-0.536763 -0.136391 -0.582680 -0.241457 0.891089 -0.384263 
-0.536803 -0.135247 -0.580581 -0.149298 0.949282 -0.276720 
-0.536914 -0.133362 -0.574700 -0.077113 0.979165 -0.187851 
-0.537019 -0.131910 -0.569055 -0.068114 0.975155 -0.210789 
-0.537178 -0.130841 -0.560547 -0.656896 0.746492 -0.106007 
-0.511659 -0.133028 -0.582424 -0.090813 -0.981857 0.166462 
-0.521993 -0.142935 -0.369135 -0.090800 -0.981858 0.166463 
-0.518770 -0.143392 -0.370077 -0.672651 -0.731326 0.112704 
-0.515548 -0.143850 -0.371020 -0.048354 -0.982554 0.179580 
-0.518215 -0.148454 -0.399865 -0.031646 -0.972254 0.231779 
-0.532365 -0.148486 -0.400317 -0.003974 -0.980806 0.194946 
-0.529013 -0.150101 -0.408249 -0.075101 -0.973463 0.216170 
-0.543598 -0.143709 -0.385491 -0.116779 -0.967718 0.223348 
-0.554396 -0.145356 -0.393875 -0.173617 -0.974531 0.141934 
-0.554112 -0.148236 -0.409069 -0.173343 -0.978047 0.115655 
-0.553647 -0.150962 -0.434113 -0.166745 -0.980124 0.107486 
-0.556304 -0.151071 -0.438551 -0.165230 -0.980362 0.107654 
-0.557348 -0.151146 -0.441313 -0.150417 -0.982680 0.108234 
-0.553243 -0.153684 -0.455826 -0.098467 -0.983911 0.149076 
-0.528355 -0.155777 -0.443534 -0.132398 -0.986325 0.098156 
-0.538901 -0.156602 -0.465615 -0.071499 -0.981380 0.178273 
-0.528443 -0.154817 -0.438808 -0.078398 -0.988050 0.132709 
-0.528544 -0.153934 -0.433389 -0.133562 -0.986485 0.094913 
-0.538352 -0.159582 -0.495171 -0.559321 -0.825742 0.072869 
-0.513464 -0.161676 -0.482879 -0.131513 -0.987141 0.090860 
-0.526748 -0.164437 -0.530084 -0.513648 -0.855173 0.069609 
-0.512375 -0.167348 -0.541522 -0.189144 -0.981874 0.012151 
-0.526208 -0.167129 -0.559171 -0.247358 -0.966289 -0.071402 
-0.526003 -0.166436 -0.570297 -0.298214 -0.943829 -0.142321 
-0.525783 -0.165525 -0.582275 -0.582133 -0.809875 -0.072278 
-0.511615 -0.169129 -0.582586 -0.547067 -0.663953 -0.509789 
-0.519863 -0.160386 -0.606600 -0.458750 -0.804212 -0.377877 
-0.525481 -0.161587 -0.598900 -0.539906 -0.677485 -0.499515 
-0.534255 -0.158062 -0.594075 -0.659289 -0.725544 -0.197294 
-0.511242 -0.166065 -0.602995 -0.349961 -0.910169 -0.221630 
-0.525634 -0.163740 -0.590469 -0.173173 -0.979451 0.103372 
-0.553880 -0.149599 -0.421591 -0.125721 -0.986492 0.105019 
-0.542930 -0.151496 -0.421223 -0.040997 -0.987913 0.149486 
-0.528777 -0.152571 -0.420867 -0.616152 -0.775042 0.140231 
-0.514627 -0.152539 -0.420415 -0.926293 -0.376593 0.012649 
-0.513499 -0.156682 -0.417477 -0.808479 -0.588186 0.019980 
-0.509704 -0.163141 -0.425367 -0.841147 -0.539534 0.037068 
-0.510596 -0.161468 -0.440923 -0.654346 -0.754308 0.053391 
-0.507282 -0.165676 -0.422903 -0.636363 -0.770371 0.039617 
-0.503998 -0.167855 -0.422653 -0.614597 -0.788520 0.022498 
-0.501043 -0.170402 -0.404509 -0.747102 -0.664103 0.028388 
-0.504808 -0.165973 -0.378849 -0.756381 -0.653471 0.029386 
-0.504859 -0.165736 -0.376122 -0.736641 -0.676040 0.018161 
-0.508690 -0.161649 -0.376548 -0.157363 -0.984582 0.076400 
-0.499045 -0.168115 -0.349693 -0.170619 -0.982858 0.069857 
