0.006193 -0.024773 0.268998 0.286282 -0.148603 0.077686 
0.011503 -0.035762 0.238385 0.321042 -0.054287 0.063719 
0.012514 -0.032619 0.238131 0.326945 0.000301 0.056411 
0.012674 -0.027496 0.237688 0.303575 -0.109702 0.076700 
0.013638 -0.036899 0.225318 0.324267 -0.031676 0.062631 
0.014586 -0.032183 0.224926 0.327738 0.009082 0.050803 
0.014746 -0.028632 0.224620 0.324948 -0.024257 0.062414 
0.020084 -0.039165 0.199256 0.323274 0.063605 0.039034 
0.019583 -0.030901 0.198528 0.329492 0.020230 0.033182 
0.025260 -0.042572 0.160064 0.313053 0.107970 0.020391 
0.023435 -0.034309 0.159312 0.331084 0.017002 0.013020 
0.028056 -0.046359 0.116491 0.315191 0.103438 0.005514 
0.027019 -0.038095 0.115754 0.331231 0.018431 0.004680 
0.029243 -0.051919 0.052490 0.315624 0.102215 -0.003024 
0.028207 -0.043656 0.051753 0.331359 0.016486 0.002132 
0.029578 -0.053489 0.034424 0.315624 0.102215 -0.003024 
0.029345 -0.048989 -0.009640 0.331083 0.020989 0.004320 
0.031452 -0.062264 -0.066588 0.331222 0.013675 0.013425 
0.030382 -0.057253 -0.008903 0.315624 0.102215 -0.003024 
0.030416 -0.054001 -0.067326 0.331195 0.019424 0.002808 
0.032708 -0.068138 -0.134203 0.315624 0.102215 -0.003024 
0.031671 -0.059875 -0.134940 0.331677 0.006986 0.004112 
0.033076 -0.069866 -0.154091 0.315679 0.102085 -0.000967 
0.032379 -0.063194 -0.173146 0.331682 0.004805 0.006274 
0.033416 -0.071457 -0.172408 0.318137 0.094009 -0.005124 
0.033113 -0.065446 -0.199062 0.331767 -0.000122 0.002495 
0.033897 -0.073709 -0.198329 0.331764 0.001633 -0.002295 
0.033769 -0.076803 -0.233941 0.321696 0.080713 -0.008519 
0.032890 -0.068539 -0.234676 0.331361 0.007558 -0.014773 
0.033464 -0.079069 -0.260034 0.321702 0.077980 -0.022407 
0.032507 -0.070805 -0.260770 0.328690 0.023312 -0.038666 
0.030591 -0.082007 -0.293874 0.324525 0.056390 -0.039737 
0.029680 -0.073744 -0.294609 0.325980 -0.001209 -0.061730 
0.028675 -0.083230 -0.307959 0.312632 0.087459 -0.068466 
0.027638 -0.074966 -0.308696 0.323205 -0.030958 -0.068232 
0.023891 -0.085349 -0.332374 0.323235 0.016628 -0.072925 
0.023368 -0.077084 -0.333101 0.276950 0.150279 -0.103875 
0.021083 -0.077800 -0.341347 0.306532 0.080887 -0.097829 
0.021303 -0.078208 -0.341307 0.320597 -0.028178 -0.080617 
0.021709 -0.086064 -0.340617 0.267946 0.141555 -0.135065 
0.016804 -0.078741 -0.352206 0.291306 0.092005 -0.129427 
0.017970 -0.080719 -0.352013 0.312361 -0.019392 -0.110135 
0.018914 -0.087003 -0.351449 0.217950 0.180125 -0.173574 
0.011072 -0.079668 -0.362904 0.273642 0.091054 -0.164025 
0.013404 -0.083624 -0.362517 0.294817 -0.025782 -0.149980 
0.014348 -0.087929 -0.362125 0.117659 0.247324 -0.187250 
0.006360 -0.080086 -0.367746 -0.136246 -0.265801 -0.144437 
-0.001962 -0.099260 -0.361443 0.002911 -0.301104 -0.139296 
0.002768 -0.100511 -0.361247 -0.225558 -0.193178 -0.147923 
-0.005335 -0.096121 -0.361779 -0.268261 -0.125332 -0.149678 
-0.007478 -0.092259 -0.362154 -0.112018 0.249512 -0.187806 
-0.001794 -0.077105 -0.363365 0.003200 0.271961 -0.190007 
0.002779 -0.076158 -0.363363 -0.135451 -0.280997 -0.113000 
-0.004211 -0.103213 -0.350470 0.002327 -0.314079 -0.106885 
0.002569 -0.104619 -0.350222 -0.235537 -0.206217 -0.109873 
-0.009255 -0.098882 -0.350940 -0.288438 -0.119296 -0.112459 
-0.012627 -0.093324 -0.351486 -0.228671 0.187235 -0.150757 
-0.009528 -0.074968 -0.353022 -0.128994 0.259083 -0.162209 
-0.004164 -0.070924 -0.353275 0.002791 0.285685 -0.168675 
0.002586 -0.069204 -0.353299 -0.141629 -0.286721 -0.088360 
-0.006148 -0.106521 -0.339357 0.001897 -0.321175 -0.083178 
0.002367 -0.107831 -0.339085 -0.256201 -0.193840 -0.082840 
-0.012137 -0.100557 -0.339986 -0.301186 -0.112262 -0.082216 
-0.015540 -0.093569 -0.340656 -0.239850 0.197651 -0.116110 
-0.012407 -0.071364 -0.342527 -0.142196 0.267944 -0.134393 
-0.005939 -0.066235 -0.342853 0.002355 0.297996 -0.145837 
0.002388 -0.063774 -0.342912 -0.160240 -0.283508 -0.063418 
-0.007752 -0.108010 -0.330992 0.001528 -0.325753 -0.062915 
0.002213 -0.109988 -0.330636 -0.264060 -0.190238 -0.064476 
-0.013709 -0.101260 -0.331689 -0.303292 -0.114683 -0.070266 
-0.017490 -0.093565 -0.332427 -0.303833 0.099115 -0.089093 
-0.018901 -0.077007 -0.333892 -0.262630 0.199512 -0.035998 
-0.013852 -0.069365 -0.334462 -0.153487 0.272163 -0.111556 
-0.007068 -0.063072 -0.334884 0.003264 0.269608 -0.193329 
0.002237 -0.059709 -0.335003 0.004062 0.234843 -0.234324 
0.002180 -0.056975 -0.332075 0.003843 0.245036 -0.223647 
0.002070 -0.051002 -0.326478 0.002793 0.285634 -0.168763 
0.001970 -0.046986 -0.321325 -0.071617 0.274533 -0.171983 
-0.000395 -0.047335 -0.321338 -0.159223 0.240705 -0.163660 
-0.003549 -0.048595 -0.321288 0.001936 0.307835 -0.123731 
0.001912 -0.045613 -0.318279 -0.062649 0.300255 -0.126481 
-0.000453 -0.045741 -0.318311 -0.141412 0.270355 -0.130330 
-0.003607 -0.046908 -0.318268 -0.205367 0.222878 -0.134999 
-0.005973 -0.048482 -0.318176 0.001294 0.319439 -0.089625 
0.001793 -0.043603 -0.311900 -0.055803 0.313988 -0.091503 
-0.000573 -0.043731 -0.311933 -0.142420 0.283880 -0.095937 
-0.004516 -0.044930 -0.311902 -0.220799 0.226466 -0.100181 
-0.007671 -0.047290 -0.311755 -0.268059 0.169832 -0.096833 
-0.016823 -0.060970 -0.310737 -0.271883 0.154210 -0.111241 
-0.014810 -0.061533 -0.317206 -0.253460 0.178488 -0.118218 
-0.012360 -0.062076 -0.323446 -0.204982 0.226251 -0.129879 
-0.008808 -0.062755 -0.331239 0.000637 0.327262 -0.054539 
0.001533 -0.040151 -0.298049 -0.052329 0.323002 -0.054833 
-0.000832 -0.040311 -0.298079 -0.096468 0.312592 -0.055278 
-0.004775 -0.041353 -0.298062 -0.148056 0.290480 -0.061449 
-0.007929 -0.042456 -0.298025 -0.217966 0.239952 -0.070635 
-0.012662 -0.045604 -0.297839 -0.271248 0.173302 -0.080414 
-0.017079 -0.050637 -0.297484 -0.292251 0.135584 -0.079259 
-0.021751 -0.059755 -0.296779 -0.308408 0.104238 -0.063984 
-0.025161 -0.067929 -0.296131 -0.324138 -0.049368 -0.050722 
-0.027978 -0.090244 -0.294246 -0.311268 -0.080039 -0.082348 
-0.024186 -0.091460 -0.308225 -0.291492 -0.152604 -0.042657 
-0.025711 -0.097783 -0.293548 -0.270244 -0.177420 -0.074605 
-0.021414 -0.099313 -0.307491 -0.222057 -0.243829 -0.036241 
-0.019628 -0.105633 -0.292754 -0.213065 -0.247354 -0.059117 
-0.014637 -0.105810 -0.306801 -0.157515 -0.290762 -0.026867 
-0.011431 -0.111123 -0.292124 -0.142946 -0.296147 -0.044033 
-0.008206 -0.111397 -0.306196 -0.089398 -0.318458 -0.025847 
-0.004258 -0.113894 -0.291750 -0.062627 -0.323095 -0.041983 
-0.003996 -0.112232 -0.306046 -0.225579 -0.238922 -0.045886 
-0.014082 -0.103244 -0.319902 0.000105 0.330763 -0.025908 
0.000906 -0.037217 -0.264274 -0.043364 0.327843 -0.026717 
-0.001459 -0.037283 -0.264312 -0.057735 0.325406 -0.029207 
-0.005402 -0.038230 -0.264303 -0.108983 0.311987 -0.029366 
-0.008555 -0.038579 -0.264331 -0.212351 0.253131 -0.030122 
-0.013918 -0.041884 -0.264144 -0.264124 0.197860 -0.034136 
-0.018967 -0.047704 -0.263732 -0.292401 0.152782 -0.035139 
-0.025122 -0.056824 -0.263053 -0.327632 -0.048447 -0.019635 
-0.031128 -0.087312 -0.260516 -0.309114 -0.119461 -0.015897 
-0.029555 -0.094853 -0.259832 -0.263058 -0.201593 -0.015352 
-0.025143 -0.102704 -0.259068 -0.197833 -0.265814 -0.016752 
-0.017263 -0.110551 -0.258240 -0.090918 -0.319044 -0.004521 
-0.008592 -0.115255 -0.257671 0.000888 -0.330596 -0.027950 
0.001498 -0.115036 -0.291545 0.000276 -0.331733 0.005309 
0.000869 -0.115778 -0.257450 -0.000038 0.331278 -0.018170 
0.000422 -0.035464 -0.238152 -0.038583 0.328970 -0.019118 
-0.001943 -0.035529 -0.238190 -0.087500 0.319550 -0.017526 
-0.005886 -0.036351 -0.238192 -0.118235 0.309477 -0.017879 
-0.009040 -0.037454 -0.238154 -0.191301 0.270028 -0.023747 
-0.015664 -0.040092 -0.238048 -0.263361 0.200453 -0.023136 
-0.020397 -0.045439 -0.237671 -0.294419 0.151905 -0.017818 
-0.026393 -0.054559 -0.236990 -0.327513 -0.052331 -0.008487 
-0.032179 -0.085048 -0.234449 -0.315423 -0.102662 -0.006631 
-0.030512 -0.092587 -0.233763 -0.280373 -0.177315 -0.005076 
-0.027204 -0.100440 -0.233020 -0.192921 -0.269870 0.005206 
-0.019166 -0.109544 -0.232079 -0.079382 -0.321727 0.016297 
-0.008445 -0.113774 -0.231513 0.000068 -0.331362 0.016565 
0.000385 -0.114811 -0.231259 -0.000292 0.331746 -0.004446 
-0.000239 -0.033943 -0.202417 -0.043137 0.328919 -0.005178 
-0.002605 -0.034008 -0.202455 -0.091838 0.318715 -0.007851 
-0.006547 -0.034955 -0.202446 -0.088918 0.319519 -0.008770 
-0.009701 -0.036049 -0.202410 -0.151658 0.294961 -0.008558 
-0.015063 -0.036998 -0.202427 -0.263527 0.201336 -0.009624 
-0.020269 -0.042346 -0.202059 -0.284386 0.170429 -0.012399 
-0.025477 -0.051465 -0.201363 -0.328574 -0.045362 -0.007540 
-0.033629 -0.081956 -0.198866 -0.314791 -0.104740 0.003394 
-0.032276 -0.089496 -0.198185 -0.292262 -0.156818 -0.008157 
-0.028338 -0.098605 -0.197321 -0.172326 -0.274509 0.070882 
-0.020773 -0.107395 -0.196417 -0.080765 -0.321325 0.017396 
-0.009737 -0.111468 -0.195858 0.000010 -0.331190 0.019703 
-0.000276 -0.112494 -0.195594 -0.000608 0.331533 0.012694 
-0.000721 -0.034289 -0.176271 -0.052373 0.327414 0.011520 
-0.003875 -0.034450 -0.176315 -0.061045 0.325927 0.010957 
-0.007030 -0.035302 -0.176300 -0.089604 0.319344 0.008117 
-0.010183 -0.035651 -0.176328 -0.180231 0.278403 0.009165 
-0.016492 -0.038518 -0.176196 -0.248733 0.219391 0.008646 
-0.019647 -0.041350 -0.176008 -0.270581 0.191941 -0.004427 
-0.025044 -0.049212 -0.175425 -0.326861 -0.056807 0.003207 
-0.034110 -0.079704 -0.172945 -0.331266 -0.016940 -0.007172 
-0.033102 -0.083317 -0.172612 -0.327982 -0.048370 -0.012778 
-0.033022 -0.087117 -0.183554 -0.316451 -0.094619 -0.031325 
-0.031963 -0.090321 -0.189463 -0.308353 -0.121509 -0.015132 
-0.029503 -0.093283 -0.194385 -0.202110 -0.261631 -0.027858 
-0.023028 -0.104971 -0.194041 -0.118190 -0.310011 0.000015 
-0.015414 -0.109158 -0.187519 -0.054867 -0.326988 0.011987 
-0.009538 -0.110816 -0.181059 0.000013 -0.331201 0.019531 
-0.000757 -0.110776 -0.169626 -0.004049 -0.331751 -0.000004 
-0.006119 -0.110767 -0.169727 0.000242 -0.331699 0.007161 
-0.000812 -0.110523 -0.166704 -0.000317 0.331761 -0.003083 
-0.001433 -0.036752 -0.137563 -0.041858 0.329092 -0.004650 
-0.004587 -0.037070 -0.137594 -0.064595 0.325390 -0.004928 
-0.007741 -0.037545 -0.137611 -0.096183 0.317476 -0.005731 
-0.010895 -0.038334 -0.137601 -0.124454 0.307407 -0.009354 
-0.014049 -0.039438 -0.137564 -0.167122 0.286132 -0.016544 
-0.017203 -0.040855 -0.137499 -0.219782 0.247412 -0.023626 
-0.024460 -0.045891 -0.137196 -0.330143 0.020907 -0.025375 
-0.034512 -0.077799 -0.154656 -0.331590 -0.000805 -0.011082 
-0.035605 -0.073715 -0.134986 -0.331175 0.014302 -0.013937 
-0.035096 -0.075346 -0.145380 0.000157 0.330531 -0.028713 
-0.002688 -0.030878 -0.069949 -0.040964 0.327936 -0.029250 
-0.005841 -0.031196 -0.069980 -0.064751 0.324070 -0.029356 
-0.008995 -0.031671 -0.069997 -0.094968 0.316544 -0.029262 
-0.012150 -0.032460 -0.069987 -0.122823 0.306843 -0.028937 
-0.015304 -0.033564 -0.069949 -0.163341 0.287421 -0.028001 
-0.018458 -0.034981 -0.069885 -0.219006 0.247904 -0.025601 
-0.025714 -0.040017 -0.069582 0.000157 0.330531 -0.028713 
-0.003758 -0.025866 -0.012263 -0.040964 0.327936 -0.029250 
-0.006911 -0.026184 -0.012294 -0.064752 0.324069 -0.029356 
-0.010066 -0.026659 -0.012311 -0.094968 0.316544 -0.029262 
-0.013220 -0.027448 -0.012302 -0.122822 0.306843 -0.028937 
-0.016374 -0.028552 -0.012264 -0.163341 0.287421 -0.028001 
-0.019529 -0.029969 -0.012200 -0.219006 0.247904 -0.025601 
-0.026785 -0.035006 -0.011897 0.000157 0.330531 -0.028713 
-0.004897 -0.020533 0.049130 -0.040964 0.327936 -0.029250 
-0.008051 -0.020851 0.049099 -0.064752 0.324069 -0.029356 
-0.011205 -0.021326 0.049082 -0.094968 0.316544 -0.029262 
-0.014359 -0.022115 0.049092 -0.122822 0.306843 -0.028937 
-0.017513 -0.023218 0.049129 -0.163341 0.287421 -0.028001 
-0.020667 -0.024636 0.049194 -0.219006 0.247904 -0.025601 
-0.027924 -0.029672 0.049496 -0.331719 -0.000374 -0.006123 
-0.036286 -0.070529 -0.098320 -0.331719 -0.000374 -0.006123 
-0.036860 -0.067840 -0.067372 -0.331035 0.005787 0.021388 
-0.037930 -0.062829 -0.009686 0.000157 0.330531 -0.028713 
-0.006084 -0.014973 0.113130 -0.040964 0.327936 -0.029250 
-0.009238 -0.015290 0.113100 -0.064751 0.324070 -0.029356 
-0.012392 -0.015766 0.113083 -0.093728 0.316733 -0.031153 
-0.015546 -0.016555 0.113092 -0.123947 0.306191 -0.030969 
-0.018701 -0.017658 0.113130 -0.164110 0.287101 -0.026765 
-0.021855 -0.019076 0.113194 -0.219889 0.247538 -0.021196 
-0.029111 -0.024112 0.113497 -0.027672 -0.325507 0.057919 
-0.012795 -0.093131 0.037082 0.000113 -0.331475 0.014118 
-0.004595 -0.093122 0.037233 0.000145 -0.331544 0.012404 
-0.004560 -0.092972 0.035321 -0.099135 -0.309321 0.067587 
-0.019878 -0.089628 0.044563 -0.058542 -0.323909 0.041608 
-0.013571 -0.091507 0.044843 -0.000280 -0.329891 0.035318 
-0.004741 -0.092125 0.045060 -0.000228 -0.330181 0.032491 
-0.004931 -0.091238 0.055272 -0.060241 -0.324759 0.031269 
-0.013761 -0.090620 0.055054 -0.141621 -0.298705 0.028176 
-0.020067 -0.088741 0.054774 -0.181845 -0.271750 0.056210 
-0.026172 -0.084868 0.051949 -0.203361 -0.261108 0.023279 
-0.026215 -0.084663 0.054306 -0.240185 -0.222010 0.055660 
-0.029367 -0.081838 0.054002 -0.266604 -0.196980 0.014005 
-0.032519 -0.077757 0.053589 -0.279826 -0.175416 0.031655 
-0.032475 -0.077962 0.051232 -0.297140 -0.147245 0.010115 
-0.034883 -0.074460 0.053258 -0.311295 -0.112737 0.021470 
-0.034694 -0.075347 0.043047 -0.315494 -0.102482 0.006026 
-0.035828 -0.071475 0.052982 -0.322511 -0.076479 0.014594 
-0.035493 -0.073045 0.034915 -0.316042 -0.100919 0.002904 
-0.036752 -0.069276 0.034565 -0.315980 -0.101039 0.004818 
-0.037088 -0.067706 0.052631 -0.327251 -0.054265 -0.006116 
-0.038484 -0.063621 0.034042 -0.326994 -0.056127 -0.000142 
-0.038820 -0.062051 0.052107 -0.331394 -0.010786 -0.011717 
-0.038640 -0.059850 0.033711 -0.331596 -0.009824 -0.004797 
-0.038976 -0.058281 0.051777 -0.330649 -0.026560 0.006443 
-0.036519 -0.070368 0.021997 -0.331027 -0.020766 -0.008099 
-0.036914 -0.065489 0.008899 -0.330728 -0.016249 0.020743 
-0.036708 -0.062988 -0.002398 -0.331405 -0.014968 -0.004653 
-0.039549 -0.055300 0.086088 -0.325402 -0.064720 -0.000406 
-0.039298 -0.059228 0.086433 -0.311045 -0.115344 0.004714 
-0.037409 -0.064725 0.086946 -0.308034 -0.123006 0.007742 
-0.036149 -0.067866 0.087243 -0.297939 -0.145356 0.013393 
-0.034889 -0.071007 0.087539 -0.262582 -0.201511 0.022781 
-0.032683 -0.074775 0.087907 -0.204397 -0.259360 0.032089 
-0.026379 -0.081053 0.088569 -0.141428 -0.297300 0.041068 
-0.020703 -0.084503 0.088975 -0.069589 -0.320780 0.048301 
-0.014397 -0.086696 0.089282 -0.000561 -0.327921 0.050424 
-0.005567 -0.087472 0.089513 -0.331378 -0.015282 0.005551 
-0.040100 -0.052721 0.115779 -0.326249 -0.059020 0.012386 
-0.039849 -0.056491 0.116111 -0.309874 -0.116808 0.020231 
-0.038149 -0.062146 0.116634 -0.298704 -0.142130 0.025501 
-0.036700 -0.065287 0.116934 -0.279196 -0.176240 0.032626 
-0.035124 -0.068427 0.117236 -0.240220 -0.224907 0.042269 
-0.032603 -0.071567 0.117555 -0.193510 -0.263948 0.054415 
-0.027244 -0.076275 0.118064 -0.121300 -0.301789 0.065458 
-0.021253 -0.079724 0.118475 -0.050546 -0.319935 0.071848 
-0.014947 -0.081131 0.118714 -0.001018 -0.323204 0.074923 
-0.006116 -0.081750 0.118931 0.000278 0.329901 -0.035226 
-0.006894 -0.011184 0.156741 -0.040775 0.327566 -0.033359 
-0.010048 -0.011502 0.156709 -0.064705 0.323666 -0.033597 
-0.013201 -0.011977 0.156692 -0.042727 0.327664 -0.029763 
-0.016356 -0.012766 0.156702 -0.110900 0.311514 -0.027125 
-0.019509 -0.012769 0.156644 -0.209400 0.256237 -0.023870 
-0.022664 -0.015287 0.156804 -0.240363 0.228089 -0.016618 
-0.028659 -0.020322 0.157131 -0.326180 -0.053594 0.028457 
-0.038449 -0.048929 0.159434 -0.309333 -0.113188 0.039713 
-0.037662 -0.052070 0.159721 -0.281625 -0.167624 0.051623 
-0.035299 -0.056782 0.160175 -0.253766 -0.205921 0.057226 
-0.033408 -0.059293 0.160428 -0.231133 -0.228114 0.067946 
-0.031359 -0.061491 0.160657 -0.198984 -0.253864 0.077678 
-0.028995 -0.063688 0.160892 -0.146955 -0.285460 0.083619 
-0.025842 -0.065570 0.161114 -0.104223 -0.301487 0.091205 
-0.020324 -0.067764 0.161407 -0.055796 -0.313438 0.093374 
-0.014175 -0.069327 0.161657 -0.001381 -0.318107 0.094241 
-0.006922 -0.069948 0.161845 -0.152011 0.289499 -0.056200 
-0.011382 -0.009274 0.177613 -0.207173 0.252850 -0.056757 
-0.012803 -0.008436 0.186159 -0.247445 0.217851 -0.037250 
-0.013614 -0.007464 0.195876 -0.171400 0.282818 -0.026669 
-0.020238 -0.010143 0.195986 -0.253257 0.213734 -0.015947 
-0.028126 -0.016908 0.196428 -0.294188 -0.134250 0.074200 
-0.033974 -0.045511 0.198804 -0.205164 -0.245621 0.087484 
-0.028774 -0.051790 0.199446 -0.106912 -0.300617 0.090966 
-0.020260 -0.055866 0.199958 -0.052153 -0.314017 0.093534 
-0.013953 -0.057116 0.200184 -0.001461 -0.316810 0.098513 
-0.007646 -0.057800 0.200360 -0.272719 0.186706 -0.028990 
-0.014793 -0.004186 0.221948 -0.202935 0.260656 -0.030838 
-0.022302 -0.008657 0.222198 -0.275255 0.184640 -0.014752 
-0.028296 -0.014634 0.222606 -0.251121 -0.200812 0.081782 
-0.026418 -0.043228 0.225124 -0.149476 -0.282972 0.087516 
-0.020743 -0.047936 0.225639 -0.056130 -0.312987 0.094678 
-0.014436 -0.049657 0.225905 -0.001449 -0.317015 0.097851 
-0.008129 -0.050027 0.226055 -0.281310 0.174967 -0.018068 
-0.014658 -0.002796 0.235035 -0.206910 0.257994 -0.026499 
-0.022545 -0.007519 0.235299 -0.289823 0.160831 -0.014534 
-0.028382 -0.013496 0.235710 -0.226710 -0.226504 0.085871 
-0.024137 -0.040988 0.238177 -0.125302 -0.289841 0.101819 
-0.019408 -0.044282 0.238552 -0.001636 -0.313761 0.107828 
-0.008371 -0.045840 0.238891 -0.302604 0.135979 -0.003965 
-0.013348 0.000564 0.266435 -0.225438 0.243402 -0.002943 
-0.020729 -0.002272 0.266544 -0.262943 0.202121 -0.009144 
-0.014850 -0.000781 0.253857 -0.205516 0.258773 -0.029578 
-0.020055 -0.003364 0.253985 -0.146852 0.297395 -0.008105 
-0.024742 -0.010447 0.267180 -0.134349 0.300441 -0.041961 
-0.026603 -0.012012 0.254615 -0.001639 -0.313707 0.107984 
-0.008950 -0.035663 0.269664 -0.290151 0.160897 0.000202 
-0.012476 0.002700 0.287387 -0.263098 0.202039 0.005951 
-0.019416 -0.001707 0.287642 -0.169226 0.285352 -0.003504 
-0.021639 -0.008623 0.288201 0.000646 0.331775 0.000466 
-0.009889 0.005769 0.317981 -0.209454 0.257114 0.009863 
-0.013043 0.004414 0.318040 -0.307753 0.114335 0.047867 
-0.016515 -0.000933 0.318440 -0.325462 0.019545 0.061383 
-0.017117 -0.007218 0.318975 -0.222287 0.238308 0.062233 
-0.012525 0.004313 0.324171 -0.310406 0.022405 0.114986 
-0.016315 -0.005810 0.324979 -0.316164 -0.065806 0.076063 
-0.017120 -0.012874 0.319466 -0.094819 -0.292195 0.125325 
-0.012537 -0.019256 0.326218 -0.002085 -0.304554 0.131598 
-0.010013 -0.018122 0.326166 -0.004601 0.234147 0.235009 
-0.010100 0.003295 0.329592 -0.192739 0.157927 0.219058 
-0.012466 0.002349 0.329630 -0.001545 0.325566 0.063875 
-0.010002 0.005478 0.324116 -0.187688 -0.076764 0.262594 
-0.012473 -0.012892 0.330954 -0.005436 -0.135506 0.302794 
-0.010108 -0.013832 0.331080 -0.006132 0.028711 0.330474 
-0.010124 -0.005179 0.331373 -0.206446 0.079566 0.247235 
-0.124985 0.013940 0.331602 -0.185141 0.068394 0.266684 
-0.122064 0.014449 0.344225 -0.006237 0.325602 0.063403 
-0.121796 0.013560 0.329795 -0.319599 0.088392 0.010909 
-0.124848 0.013299 0.324219 0.030722 0.330069 -0.013631 
-0.121656 0.013219 0.322227 -0.319691 0.077611 -0.043003 
-0.124810 0.013122 0.322176 -0.300023 0.051871 -0.131798 
-0.123711 0.012724 0.319065 0.092781 -0.002587 0.318528 
-0.041713 -0.080081 -0.003701 0.055988 0.325629 0.030108 
-0.041441 -0.078520 -0.018525 -0.329399 -0.025934 0.029983 
-0.038001 -0.080609 -0.004786 -0.216315 0.251007 0.016698 
-0.037729 -0.079047 -0.019610 -0.215492 0.252150 0.007679 
-0.036864 -0.075916 -0.066670 0.052630 0.327033 0.018839 
-0.067887 -0.071744 -0.047482 0.039409 0.329427 -0.000086 
-0.065953 -0.071112 -0.077155 -0.223717 0.244865 -0.008201 
-0.036288 -0.074677 -0.097959 0.011554 0.329411 -0.037815 
-0.065383 -0.072395 -0.107949 -0.235943 0.230896 -0.033062 
-0.035607 -0.076008 -0.134786 0.018632 0.330121 -0.027365 
-0.091334 -0.069155 -0.085818 0.040181 0.329308 -0.004161 
-0.090398 -0.068118 -0.060789 0.010137 0.329444 -0.037939 
-0.116843 -0.066068 -0.068297 0.038275 0.329457 -0.008276 
-0.117304 -0.064454 -0.043439 -0.010984 0.326063 -0.060313 
-0.146601 -0.062467 -0.048025 0.029179 0.330386 -0.008290 
-0.147082 -0.060214 -0.022103 0.053912 0.326714 0.020667 
-0.092927 -0.068256 -0.037023 0.056934 0.325810 0.026103 
-0.117051 -0.064752 -0.025111 0.051803 0.326948 0.022292 
-0.147287 -0.060674 -0.010984 0.054245 0.325891 0.030456 
-0.066821 -0.074913 -0.011103 0.052946 0.326362 0.027561 
-0.078588 -0.072191 -0.023244 0.054697 0.325979 0.028656 
-0.074752 -0.073787 -0.008784 0.057230 0.325355 0.030731 
-0.100795 -0.069036 -0.016750 0.061427 0.324065 0.035830 
-0.123002 -0.065881 -0.010256 0.062719 0.324745 0.026121 
-0.129360 -0.065511 0.000852 0.060497 0.324395 0.034398 
-0.147492 -0.061645 0.000180 0.055298 0.325851 0.028956 
-0.119166 -0.067476 0.004204 0.058940 0.324831 0.032960 
-0.129476 -0.066011 0.007219 0.060805 0.323627 0.040539 
-0.147750 -0.063545 0.014274 0.078171 -0.004063 0.322410 
-0.129749 -0.067573 0.022043 0.148836 -0.006751 0.296441 
-0.147990 -0.064981 0.027377 0.062548 0.323333 0.040231 
-0.149984 -0.063282 0.015635 0.058852 0.324460 0.036570 
-0.155492 -0.060909 0.006301 0.041613 0.328876 0.013576 
-0.168047 -0.058551 0.002652 0.057569 0.324998 0.033729 
-0.171448 -0.059033 0.016025 0.033652 0.330065 0.000354 
-0.193599 -0.055938 0.019437 0.056509 0.325558 0.029898 
-0.187404 -0.057156 0.025749 0.053818 0.326230 0.027435 
-0.203360 -0.055280 0.035474 0.025998 0.330575 -0.010932 
-0.212762 -0.053979 0.032025 0.051185 0.326968 0.023397 
-0.219315 -0.053403 0.045197 0.018689 0.330575 -0.021124 
-0.228732 -0.052346 0.042515 0.046107 0.327628 0.024690 
-0.228886 -0.052289 0.050899 0.053356 0.322077 0.059116 
-0.225933 -0.054349 0.061922 0.069884 0.319802 0.054022 
-0.213807 -0.055776 0.054531 0.145761 -0.021425 0.297271 
-0.229263 -0.055733 0.071498 0.157196 -0.032240 0.290388 
-0.226076 -0.056095 0.069768 0.157926 -0.018427 0.291196 
-0.234044 -0.055189 0.074093 0.056532 0.322970 0.050692 
-0.233813 -0.053179 0.061484 0.017145 0.331050 -0.013689 
-0.254283 -0.049734 0.059300 0.052305 0.325271 0.039227 
-0.254551 -0.051189 0.073919 0.018323 0.331117 -0.010038 
-0.279835 -0.048378 0.076193 0.044443 0.327902 0.024099 
-0.280075 -0.048739 0.089225 0.018427 0.331004 -0.013124 
-0.305387 -0.046653 0.093054 0.032249 0.330040 0.010449 
-0.305599 -0.046289 0.104530 0.018314 0.330951 -0.014553 
-0.167852 -0.058490 -0.007948 0.011155 0.330616 -0.025373 
-0.193414 -0.056369 0.009475 0.004752 0.329931 -0.034613 
-0.212586 -0.054778 0.022542 -0.001748 0.328947 -0.043202 
-0.228563 -0.053452 0.033431 -0.009596 0.326512 -0.058076 
-0.254125 -0.051330 0.050854 -0.007409 0.328577 -0.045362 
-0.279688 -0.049209 0.068276 -0.008013 0.328748 -0.043999 
-0.305251 -0.047087 0.085699 -0.021276 0.325121 -0.062602 
-0.167412 -0.060792 -0.031645 -0.021688 0.325634 -0.059732 
-0.193025 -0.058730 -0.011487 -0.028259 0.323007 -0.070308 
-0.212235 -0.057184 0.003633 -0.028410 0.322903 -0.070722 
-0.228243 -0.055896 0.016232 -0.029816 0.320497 -0.080425 
-0.253855 -0.053835 0.036391 -0.022874 0.323489 -0.070052 
-0.279468 -0.051108 0.056493 -0.026586 0.324046 -0.066052 
-0.305081 -0.048792 0.076629 -0.132227 0.021904 0.303499 
-0.313723 -0.046121 0.117348 0.104681 0.003087 0.314814 
-0.305755 -0.047028 0.113023 -0.126900 0.306286 -0.012677 
-0.313372 -0.046034 0.098316 -0.134635 0.301293 -0.034225 
-0.313239 -0.046424 0.091143 -0.083241 0.315486 -0.060123 
-0.313085 -0.048444 0.082955 -0.322533 0.008586 -0.077292 
-0.312971 -0.049643 0.076818 -0.256754 0.026434 -0.208457 
-0.309730 -0.050269 0.072183 -0.305891 -0.128415 0.003968 
-0.314956 -0.047734 0.098782 -0.292646 -0.155788 0.012784 
-0.314839 -0.048280 0.092498 -0.302124 -0.116459 -0.072344 
-0.314694 -0.048962 0.084644 -0.310747 -0.081091 -0.083280 
-0.314635 -0.049235 0.081502 -0.303296 -0.010622 -0.134068 
-0.035107 -0.088648 -0.161103 -0.289583 0.067902 -0.146991 
-0.035124 -0.085950 -0.160293 -0.219604 -0.012062 -0.248403 
-0.042066 -0.087663 -0.155009 -0.192020 0.125690 -0.239595 
-0.042085 -0.084915 -0.154169 -0.191925 0.125948 -0.239535 
-0.045292 -0.084438 -0.151347 -0.219575 -0.012537 -0.248405 
-0.048481 -0.086754 -0.149392 -0.219565 -0.012307 -0.248425 
-0.045274 -0.087208 -0.152201 -0.189767 0.137660 -0.234763 
-0.048500 -0.083962 -0.148525 -0.176679 0.163146 -0.228568 
-0.051707 -0.083485 -0.145703 -0.219718 -0.013730 -0.248215 
-0.064517 -0.084482 -0.135352 -0.219578 -0.012793 -0.248389 
-0.051688 -0.086299 -0.146584 -0.176248 0.164109 -0.228211 
-0.064537 -0.081578 -0.134416 -0.269083 0.143259 -0.130946 
-0.035182 -0.082314 -0.157443 -0.117288 0.258369 -0.171944 
-0.064585 -0.079610 -0.131940 -0.241631 0.200924 -0.106392 
-0.035239 -0.080627 -0.154424 -0.093062 0.280283 -0.151183 
-0.064654 -0.077711 -0.128306 -0.232724 0.218893 -0.089449 
-0.035297 -0.079411 -0.151364 -0.064417 0.302568 -0.119910 
-0.064700 -0.076393 -0.125888 -0.236878 0.223989 -0.061589 
-0.035425 -0.077240 -0.144588 -0.024609 0.322083 -0.075713 
-0.064822 -0.074720 -0.119385 -0.219959 -0.015927 -0.247871 
-0.090174 -0.080847 -0.112884 -0.184295 0.143108 -0.235862 
-0.090196 -0.077763 -0.111841 -0.130152 0.236360 -0.193054 
-0.090245 -0.075105 -0.109373 -0.081998 0.286509 -0.145823 
-0.090291 -0.073630 -0.106969 -0.049248 0.306871 -0.116104 
-0.090349 -0.072414 -0.103909 -0.020569 0.321932 -0.077537 
-0.090436 -0.070747 -0.099305 -0.220047 -0.018144 -0.247640 
-0.115831 -0.077213 -0.090417 -0.185017 0.144058 -0.234716 
-0.115856 -0.073949 -0.089265 -0.150040 0.210742 -0.207728 
-0.115900 -0.071569 -0.087039 -0.091989 0.280852 -0.150784 
-0.115946 -0.069466 -0.084690 -0.039273 0.316312 -0.092085 
-0.115992 -0.068776 -0.082217 -0.018060 0.323447 -0.071632 
-0.116065 -0.067649 -0.078358 -0.227541 0.039997 -0.238119 
-0.138281 -0.074033 -0.070759 -0.182678 0.150670 -0.232385 
-0.138308 -0.070611 -0.069512 -0.220238 -0.021091 -0.247237 
-0.146299 -0.072897 -0.063738 -0.181107 0.154996 -0.230764 
-0.146327 -0.069420 -0.062457 -0.148841 0.218411 -0.200546 
-0.146355 -0.068026 -0.060996 -0.125930 0.247801 -0.181140 
-0.146396 -0.066264 -0.058933 -0.079499 0.292992 -0.133831 
-0.146430 -0.065157 -0.057129 -0.040176 0.315588 -0.094158 
-0.146482 -0.064283 -0.054356 -0.220940 -0.013535 -0.247139 
-0.167146 -0.069943 -0.045484 -0.160251 0.196191 -0.214252 
-0.167193 -0.065523 -0.043233 -0.099799 0.278020 -0.151065 
-0.167245 -0.063706 -0.040541 -0.062092 0.307047 -0.109281 
-0.167291 -0.062702 -0.038096 -0.220635 -0.027314 -0.246271 
-0.192803 -0.066309 -0.023018 -0.164279 0.190584 -0.216253 
-0.192842 -0.062643 -0.021158 -0.116734 0.258731 -0.171775 
-0.192877 -0.061380 -0.019369 -0.077173 0.297249 -0.125550 
-0.192911 -0.060273 -0.017566 -0.221220 -0.045187 -0.243095 
-0.212046 -0.063583 -0.006167 -0.161668 0.199413 -0.210174 
-0.212079 -0.060405 -0.004610 -0.094396 0.288559 -0.133786 
-0.212119 -0.059114 -0.002506 -0.011726 0.079453 -0.321909 
-0.225517 -0.061675 0.005628 -0.113281 0.267260 -0.160670 
-0.228127 -0.057699 0.010058 -0.234920 0.192251 -0.133893 
-0.229301 -0.061679 0.005558 -0.300171 0.035313 -0.136842 
-0.230327 -0.060993 0.009840 -0.099385 0.270721 -0.164037 
-0.253738 -0.055939 0.030171 -0.200418 0.043155 -0.260856 
-0.253700 -0.057836 0.028191 -0.202397 0.038113 -0.260112 
-0.279313 -0.054377 0.048302 -0.076873 0.290443 -0.140743 
-0.279355 -0.052739 0.050477 -0.198244 0.076691 -0.254741 
-0.304927 -0.050917 0.068412 -0.035541 0.317962 -0.087822 
-0.304970 -0.050180 0.070680 -0.022683 -0.325087 0.062282 
-0.041223 -0.084579 -0.029965 -0.218467 -0.247098 0.035922 
-0.037511 -0.085107 -0.031050 -0.205020 -0.256945 0.044958 
-0.037361 -0.086439 -0.039101 -0.031761 -0.325067 0.058295 
-0.053662 -0.086477 -0.039622 -0.031926 -0.324726 0.060076 
-0.066602 -0.080974 -0.022543 -0.045530 -0.324540 0.051733 
-0.066276 -0.084291 -0.040046 0.176698 -0.275579 0.053937 
-0.069534 -0.082861 -0.034531 0.201646 -0.259682 0.044492 
-0.069775 -0.080523 -0.021615 0.190173 -0.269237 0.037697 
-0.069323 -0.084976 -0.045836 -0.040378 -0.327638 0.033134 
-0.066008 -0.085861 -0.054472 0.185103 -0.274619 0.019910 
-0.069185 -0.085599 -0.053287 0.145510 -0.296997 0.026356 
-0.069068 -0.085988 -0.059584 -0.043273 -0.326786 0.037595 
-0.053393 -0.088047 -0.054048 -0.025959 -0.330682 0.007138 
-0.069466 -0.086481 -0.063645 -0.045302 -0.326992 0.033158 
-0.064627 -0.089202 -0.080701 -0.186696 -0.272329 0.032506 
-0.036871 -0.091409 -0.065324 -0.163370 -0.283702 0.053839 
-0.036973 -0.090302 -0.059880 -0.176158 -0.279302 0.032152 
-0.037089 -0.089285 -0.053638 -0.171334 -0.283136 0.023537 
-0.036239 -0.094842 -0.099373 -0.061862 -0.325915 0.005290 
-0.052175 -0.094590 -0.119705 -0.179034 -0.279271 -0.005460 
-0.035617 -0.097943 -0.132881 -0.096364 -0.314303 -0.044756 
-0.051939 -0.093791 -0.132523 -0.207744 -0.254166 -0.048142 
-0.035364 -0.096894 -0.146680 -0.092981 -0.315781 -0.041375 
-0.058992 -0.092470 -0.126499 -0.083454 -0.320246 -0.023521 
-0.077587 -0.088990 -0.110618 -0.057379 -0.326271 0.018181 
-0.075699 -0.089285 -0.097946 -0.041618 -0.327640 0.031549 
-0.079544 -0.086350 -0.072559 -0.069389 -0.324406 -0.004614 
-0.089649 -0.086493 -0.098243 -0.058124 -0.326644 0.000711 
-0.102308 -0.084087 -0.087060 -0.045915 -0.327877 0.021544 
-0.100899 -0.083763 -0.074128 -0.042844 -0.327344 0.032944 
-0.088151 -0.084181 -0.060987 -0.041800 -0.327453 0.033203 
-0.105687 -0.081223 -0.054622 -0.057318 -0.322429 -0.053194 
-0.071803 -0.086318 -0.062641 -0.123764 -0.306696 -0.026371 
-0.073937 -0.086069 -0.059838 -0.155678 -0.292978 -0.001768 
-0.075256 -0.085742 -0.052739 -0.116880 -0.308931 0.031243 
-0.079448 -0.083539 -0.042439 -0.008829 -0.331088 0.019450 
-0.104738 -0.079833 -0.041781 0.141323 -0.298830 0.028351 
-0.104223 -0.078972 -0.035513 0.174116 -0.279208 0.042449 
-0.104423 -0.078018 -0.024756 -0.224070 -0.232597 0.075940 
-0.075841 -0.082868 -0.034648 -0.030171 -0.324998 0.059508 
-0.091982 -0.077367 -0.015121 -0.225001 -0.239940 0.043344 
-0.076120 -0.079621 -0.019760 0.196313 -0.263479 0.045997 
-0.104672 -0.075564 -0.011411 -0.054044 -0.327272 0.006892 
-0.115491 -0.081700 -0.076489 -0.047137 -0.328241 0.010547 
-0.127333 -0.079493 -0.066449 -0.040875 -0.328520 0.021883 
-0.129037 -0.079027 -0.058539 0.215909 -0.251128 0.019843 
-0.136899 -0.077888 -0.059962 -0.040436 -0.327380 0.035536 
-0.116672 -0.078799 -0.044785 -0.033406 -0.329996 0.007862 
-0.106630 -0.079835 -0.041815 -0.180966 -0.278074 -0.001234 
-0.108639 -0.078977 -0.035594 0.213988 -0.251238 0.034114 
-0.137043 -0.077405 -0.052167 0.192372 -0.266981 0.042299 
-0.137443 -0.074655 -0.030688 -0.219642 -0.248141 0.016087 
-0.109847 -0.076943 -0.021499 -0.034332 -0.325641 0.053428 
-0.129258 -0.072071 -0.004220 -0.218537 -0.247421 0.033161 
-0.111017 -0.074662 -0.009555 0.171073 -0.276253 0.067032 
-0.138565 -0.071250 -0.004252 -0.026385 -0.325080 0.060842 
-0.139727 -0.068433 0.007247 -0.006612 -0.327097 0.055128 
-0.147594 -0.068613 0.006167 -0.019494 -0.326852 0.053508 
-0.147500 -0.069479 0.001114 -0.196959 -0.261520 0.053756 
-0.140480 -0.070870 -0.003102 -0.027021 -0.327952 0.042341 
-0.147030 -0.072743 -0.024181 -0.222463 -0.243994 0.032442 
-0.140638 -0.074018 -0.028519 -0.049236 -0.326407 0.033309 
-0.146651 -0.075460 -0.044521 -0.242985 -0.224925 0.021027 
-0.140246 -0.076757 -0.049618 -0.049848 -0.327584 0.016716 
-0.146517 -0.076088 -0.051748 -0.249321 -0.218754 0.007815 
-0.140105 -0.077288 -0.057224 -0.278601 -0.102999 -0.147811 
-0.035127 -0.091795 -0.159785 -0.203935 -0.161665 -0.205792 
-0.042088 -0.090808 -0.153657 -0.203618 -0.164680 -0.203704 
-0.045295 -0.090352 -0.150833 -0.202056 -0.167845 -0.202675 
-0.048503 -0.089897 -0.148010 -0.247949 -0.194781 -0.103234 
-0.035187 -0.094413 -0.156391 -0.148791 -0.271286 -0.119753 
-0.051767 -0.091735 -0.141963 -0.201855 -0.168318 -0.202482 
-0.051710 -0.089442 -0.145185 -0.200342 -0.173846 -0.199289 
-0.064540 -0.087622 -0.133891 -0.143874 -0.276638 -0.113346 
-0.062510 -0.090000 -0.132613 -0.197664 -0.182787 -0.193889 
-0.077369 -0.085802 -0.122595 -0.195385 -0.189031 -0.190177 
-0.090199 -0.083982 -0.111300 -0.191557 -0.198090 -0.184775 
-0.103029 -0.082162 -0.100005 -0.187493 -0.208129 -0.177775 
-0.115859 -0.080342 -0.088712 -0.179093 -0.224401 -0.166269 
-0.133500 -0.077838 -0.073179 0.213231 -0.176421 -0.182984 
-0.137670 -0.077247 -0.069508 -0.089517 -0.316463 -0.043739 
-0.132581 -0.078683 -0.071631 0.055434 -0.303203 -0.122761 
-0.136430 -0.078061 -0.068282 -0.309892 -0.053515 -0.105728 
-0.138953 -0.077065 -0.068379 -0.172397 -0.238268 -0.153569 
-0.146330 -0.076019 -0.061884 -0.255475 -0.199646 -0.070352 
-0.139957 -0.077492 -0.065212 -0.078970 -0.321510 -0.021696 
-0.146371 -0.076456 -0.059630 -0.159744 -0.261761 -0.126643 
-0.151782 -0.075117 -0.057124 -0.151832 -0.267049 -0.125328 
-0.167177 -0.072571 -0.043682 -0.146464 -0.273890 -0.116653 
-0.180005 -0.070449 -0.032481 -0.146441 -0.273311 -0.118032 
-0.192833 -0.068329 -0.021279 -0.140311 -0.280453 -0.108325 
-0.205661 -0.066207 -0.010078 -0.139013 -0.285264 -0.096825 
-0.221697 -0.063555 0.003924 0.213582 -0.250349 0.042234 
-0.163557 -0.066472 0.016240 0.202713 -0.260559 0.033039 
-0.163438 -0.067280 0.009874 0.177161 -0.277759 0.039233 
-0.163264 -0.068472 0.000480 -0.020655 -0.328317 0.043088 
-0.155028 -0.071560 -0.018257 -0.001217 -0.330977 0.022975 
-0.163089 -0.069668 -0.008912 -0.038735 -0.329087 0.016629 
-0.167365 -0.072794 -0.033452 -0.019915 -0.330781 0.016203 
-0.166243 -0.069671 -0.008971 -0.039020 -0.329108 0.015529 
-0.180194 -0.070767 -0.022193 -0.015750 -0.328477 0.043934 
-0.180620 -0.067773 0.000699 -0.040241 -0.329007 0.014501 
-0.193024 -0.068739 -0.010934 -0.026311 -0.327320 0.047382 
-0.193417 -0.065880 0.010177 -0.040081 -0.328604 0.022094 
-0.205853 -0.066712 0.000326 -0.015752 -0.330760 0.020610 
-0.201340 -0.064186 0.012068 -0.177974 -0.280001 -0.000315 
-0.168625 -0.068478 0.000381 -0.206593 -0.258795 0.020499 
-0.169746 -0.067031 0.009735 -0.218417 -0.247665 0.032118 
-0.169942 -0.065614 0.020270 -0.012692 -0.327893 0.048997 
-0.181116 -0.064116 0.027321 -0.016130 -0.326471 0.056850 
-0.193886 -0.062402 0.035380 0.186593 -0.271814 0.037084 
-0.201515 -0.063775 0.021530 -0.010913 -0.331353 0.012696 
-0.204494 -0.064189 0.012010 -0.036211 -0.329419 0.015730 
-0.216116 -0.065090 0.009333 -0.194532 -0.268761 0.000379 
-0.206877 -0.063467 0.021404 -0.009737 -0.328128 0.048088 
-0.215810 -0.062567 0.026764 -0.204604 -0.260095 0.023738 
-0.208056 -0.061462 0.033874 0.233418 -0.233838 0.030189 
-0.226699 -0.063300 0.018488 0.218084 -0.244780 0.050967 
-0.226774 -0.062316 0.022518 0.207303 -0.254580 0.047852 
-0.227007 -0.060910 0.035058 -0.015209 -0.328290 0.045493 
-0.219425 -0.058975 0.051497 -0.221520 -0.245843 0.023787 
-0.208252 -0.060474 0.044446 0.185248 -0.269210 0.057308 
-0.227153 -0.059599 0.042858 -0.015979 -0.328497 0.043697 
-0.225810 -0.058118 0.055526 -0.011861 -0.327535 0.051530 
-0.229003 -0.057690 0.057541 0.205764 -0.260221 -0.004632 
-0.226570 -0.062643 0.011466 -0.007490 -0.328488 0.045983 
-0.233815 -0.056999 0.061816 -0.200703 -0.259899 0.047393 
-0.230306 -0.059603 0.042800 -0.014096 -0.329123 0.039429 
-0.244556 -0.058981 0.045648 -0.220532 -0.245142 0.036693 
-0.230161 -0.060914 0.034999 -0.266095 -0.182155 0.078028 
-0.229928 -0.062320 0.022459 -0.227871 -0.240185 0.021471 
-0.230687 -0.062300 0.020860 -0.035271 -0.329593 0.014124 
-0.253901 -0.059017 0.039203 -0.007963 -0.327969 0.049479 
-0.254553 -0.054722 0.074226 -0.017566 -0.329130 0.037952 
-0.270135 -0.055607 0.063881 -0.035103 -0.329615 0.014043 
-0.269912 -0.056753 0.051852 -0.034154 -0.329585 0.016806 
-0.282720 -0.054942 0.061972 -0.006177 -0.327530 0.052548 
-0.280077 -0.051920 0.089501 -0.017242 -0.329554 0.034234 
-0.295714 -0.052232 0.082113 -0.035494 -0.329577 0.013931 
-0.300011 -0.052497 0.075633 -0.045709 -0.323299 0.058855 
-0.305600 -0.049117 0.104776 -0.075049 -0.321665 0.031219 
-0.305321 -0.050899 0.089736 -0.071928 -0.323000 0.023938 
-0.305134 -0.051773 0.079682 -0.049061 -0.324741 0.047026 
-0.311481 -0.048760 0.081519 -0.047032 -0.327405 0.025878 
-0.311685 -0.047962 0.092529 -0.050597 -0.326573 0.029411 
-0.311890 -0.047635 0.103580 -0.118225 -0.297184 -0.088202 
-0.304947 -0.051766 0.069551 -0.132419 -0.265743 -0.148057 
-0.235779 -0.061410 0.014672 -0.141258 -0.270487 -0.130224 
-0.253712 -0.058910 0.028900 -0.132420 -0.279910 -0.119125 
-0.269723 -0.056678 0.041603 -0.119262 -0.292972 -0.100096 
-0.295341 -0.053105 0.061929 0.272594 0.188220 0.018472 
-0.136667 -0.093960 -0.071546 0.150149 0.295477 0.014967 
-0.134838 -0.094649 -0.071452 0.232962 0.235178 0.022254 
-0.132001 -0.096531 -0.071236 0.303838 0.129269 0.032361 
-0.130110 -0.099389 -0.070953 0.328812 0.004114 0.044058 
-0.129417 -0.102750 -0.070648 0.303367 -0.122630 0.054826 
-0.130113 -0.106145 -0.070366 0.232039 -0.228609 0.063017 
-0.132007 -0.108976 -0.070155 0.125921 -0.299547 0.067015 
-0.134846 -0.110864 -0.070044 -0.001002 -0.324956 0.066916 
-0.138252 -0.111559 -0.070047 -0.127378 -0.299875 0.062652 
-0.141658 -0.110872 -0.070169 -0.233925 -0.229048 0.053772 
-0.144495 -0.108990 -0.070385 -0.304937 -0.123420 0.043085 
-0.146386 -0.106164 -0.070666 -0.330220 0.003118 0.031948 
-0.147079 -0.102771 -0.070974 -0.304966 0.128896 0.021385 
-0.146383 -0.099407 -0.071253 -0.234256 0.234581 0.013091 
-0.144490 -0.096546 -0.071467 -0.151680 0.294937 0.008967 
-0.141651 -0.094657 -0.071578 -0.273281 0.187912 0.009067 
-0.139821 -0.093963 -0.071604 0.135200 -0.301561 -0.029274 
-0.141679 -0.096764 -0.107496 0.004624 -0.330437 -0.029417 
-0.137579 -0.095816 -0.107502 0.018311 -0.044886 -0.328215 
-0.137473 -0.094422 -0.113322 -0.003547 -0.032760 -0.330136 
-0.142364 -0.095362 -0.113236 0.234615 -0.231226 -0.039570 
-0.145149 -0.099282 -0.107342 -0.015873 -0.044076 -0.328452 
-0.146564 -0.098171 -0.112785 0.306291 -0.115068 -0.054959 
-0.147359 -0.102584 -0.107096 -0.017435 -0.052419 -0.327145 
-0.149318 -0.102223 -0.112072 0.322536 0.005261 -0.077579 
-0.147675 -0.105884 -0.106815 -0.005949 -0.054076 -0.327285 
-0.150117 -0.106897 -0.111205 0.292766 0.113883 -0.106741 
-0.146731 -0.110282 -0.106415 -0.005449 -0.072357 -0.323744 
-0.149340 -0.111569 -0.110310 0.212283 0.227516 -0.115100 
-0.144525 -0.113422 -0.106102 0.042371 0.000664 -0.329058 
-0.146604 -0.114993 -0.109614 0.115491 0.276147 -0.143108 
-0.141215 -0.115304 -0.105877 0.026462 -0.025211 -0.329757 
-0.142418 -0.118415 -0.108891 0.004077 0.292360 -0.156794 
-0.137589 -0.115928 -0.105755 0.003107 0.026605 -0.330693 
-0.137532 -0.119343 -0.108624 -0.101625 0.274742 -0.155771 
-0.133961 -0.115296 -0.105743 -0.008642 -0.011173 -0.331475 
-0.132641 -0.118403 -0.108710 -0.214695 0.215630 -0.132231 
-0.130649 -0.113406 -0.105846 -0.055158 -0.002783 -0.327147 
-0.128470 -0.114972 -0.109279 -0.285853 0.116943 -0.121194 
-0.128440 -0.110261 -0.106078 0.019452 -0.053820 -0.326803 
-0.125687 -0.111542 -0.109874 -0.316954 0.004710 -0.097947 
-0.127491 -0.105861 -0.106442 0.005439 -0.074786 -0.323192 
-0.124887 -0.106869 -0.110740 -0.301816 -0.121055 -0.065791 
-0.127805 -0.102561 -0.106735 0.031590 -0.044433 -0.327266 
-0.125652 -0.102257 -0.112326 -0.234294 -0.229681 -0.049278 
-0.130011 -0.099264 -0.107062 -0.000306 -0.023180 -0.330965 
-0.128430 -0.098150 -0.112450 -0.134047 -0.300340 -0.043617 
-0.133479 -0.096754 -0.107345 0.013441 -0.055155 -0.326883 
-0.132599 -0.095291 -0.112364 0.004206 0.227169 -0.241768 
-0.137641 -0.104028 -0.103624 -0.170211 0.155124 -0.238831 
-0.138745 -0.104501 -0.103603 -0.242368 -0.019493 -0.225728 
-0.139219 -0.105601 -0.103516 -0.170378 -0.193166 -0.209126 
-0.138746 -0.106701 -0.103412 0.003989 -0.264805 -0.199844 
-0.137643 -0.107171 -0.103351 0.178415 -0.192771 -0.202689 
-0.136539 -0.106698 -0.103371 0.250577 -0.018934 -0.216629 
-0.136065 -0.105598 -0.103458 0.178557 0.155519 -0.232394 
-0.136537 -0.104498 -0.103562 0.006132 -0.028709 -0.330475 
-0.137624 -0.105681 -0.104429 0.270705 0.190548 0.022044 
-0.226467 -0.079188 0.006889 0.150149 0.295477 0.014967 
-0.224638 -0.079877 0.006983 0.232961 0.235179 0.022254 
-0.221800 -0.081760 0.007199 0.303838 0.129269 0.032361 
-0.219909 -0.084617 0.007482 0.328812 0.004112 0.044058 
-0.219217 -0.087979 0.007787 0.303367 -0.122630 0.054826 
-0.219912 -0.091374 0.008069 0.232040 -0.228608 0.063017 
-0.221806 -0.094204 0.008280 0.125921 -0.299547 0.067015 
-0.224645 -0.096092 0.008391 -0.001002 -0.324956 0.066916 
-0.228052 -0.096788 0.008388 -0.127378 -0.299875 0.062652 
-0.231458 -0.096100 0.008266 -0.233925 -0.229048 0.053772 
-0.234295 -0.094218 0.008049 -0.304936 -0.123422 0.043086 
-0.236186 -0.091392 0.007769 -0.330220 0.003118 0.031948 
-0.236878 -0.087999 0.007461 -0.304965 0.128897 0.021385 
-0.236182 -0.084636 0.007182 -0.234256 0.234581 0.013091 
-0.234289 -0.081774 0.006968 -0.151681 0.294937 0.008967 
-0.231450 -0.079885 0.006857 -0.271521 0.190238 0.012705 
-0.229620 -0.079192 0.006831 0.135201 -0.301561 -0.029274 
-0.231478 -0.081992 -0.029061 0.004624 -0.330437 -0.029416 
-0.227378 -0.081045 -0.029067 0.019442 -0.059593 -0.325800 
-0.227272 -0.079650 -0.034887 -0.005663 -0.034528 -0.329926 
-0.232163 -0.080590 -0.034801 0.234615 -0.231226 -0.039570 
-0.234949 -0.084510 -0.028907 -0.015872 -0.044076 -0.328452 
-0.236364 -0.083399 -0.034350 0.306292 -0.115067 -0.054959 
-0.237158 -0.087812 -0.028661 -0.017435 -0.052419 -0.327145 
-0.239117 -0.087452 -0.033637 0.322536 0.005263 -0.077578 
-0.237475 -0.091112 -0.028380 -0.005949 -0.054075 -0.327285 
-0.239917 -0.092125 -0.032771 0.292767 0.113882 -0.106742 
-0.236531 -0.095511 -0.027980 -0.005456 -0.072362 -0.323743 
-0.239139 -0.096797 -0.031875 0.212282 0.227517 -0.115100 
-0.234325 -0.098650 -0.027666 0.042371 0.000666 -0.329059 
-0.236404 -0.100221 -0.031179 0.115491 0.276147 -0.143109 
-0.231014 -0.100532 -0.027442 0.026460 -0.025219 -0.329756 
-0.232217 -0.103643 -0.030455 0.004077 0.292360 -0.156795 
-0.227388 -0.101157 -0.027320 0.003106 0.026604 -0.330693 
-0.227331 -0.104572 -0.030189 -0.101627 0.274742 -0.155770 
-0.223760 -0.100524 -0.027308 -0.008642 -0.011174 -0.331475 
-0.222440 -0.103632 -0.030275 -0.214695 0.215630 -0.132232 
-0.220448 -0.098635 -0.027411 -0.055156 -0.002782 -0.327147 
-0.218269 -0.100200 -0.030844 -0.285852 0.116943 -0.121195 
-0.218239 -0.095490 -0.027643 0.019452 -0.053821 -0.326803 
-0.215486 -0.096771 -0.031439 -0.316954 0.004709 -0.097947 
-0.217291 -0.091089 -0.028007 0.005445 -0.074785 -0.323192 
-0.214687 -0.092097 -0.032305 -0.301815 -0.121055 -0.065791 
-0.217605 -0.087790 -0.028300 0.031593 -0.044433 -0.327266 
-0.215451 -0.087485 -0.033892 -0.234294 -0.229680 -0.049279 
-0.219811 -0.084493 -0.028627 -0.000304 -0.023178 -0.330965 
-0.218230 -0.083378 -0.034015 -0.134048 -0.300340 -0.043618 
-0.223279 -0.081983 -0.028910 0.013441 -0.055152 -0.326884 
-0.222399 -0.080520 -0.033929 0.004207 0.227170 -0.241768 
-0.227441 -0.089256 -0.025188 -0.170210 0.155126 -0.238830 
-0.228545 -0.089729 -0.025168 -0.242369 -0.019494 -0.225726 
-0.229018 -0.090829 -0.025081 -0.170377 -0.193168 -0.209125 
-0.228546 -0.091929 -0.024977 0.003986 -0.264806 -0.199843 
-0.227442 -0.092399 -0.024915 0.178411 -0.192777 -0.202687 
-0.226338 -0.091926 -0.024936 0.250576 -0.018939 -0.216629 
-0.225865 -0.090826 -0.025023 0.178557 0.155520 -0.232393 
-0.226337 -0.089726 -0.025127 0.006133 -0.028712 -0.330474 
-0.227424 -0.090910 -0.025994 -0.291311 -0.158535 0.008969 
-0.036062 -0.091212 -0.035718 -0.223495 -0.244031 0.023966 
-0.032717 -0.096726 -0.062727 -0.241367 -0.227374 0.010862 
-0.033271 -0.094133 -0.032879 -0.178177 -0.279319 0.017578 
-0.028934 -0.099236 -0.062439 -0.153766 -0.293427 0.018222 
-0.029868 -0.097068 -0.011977 -0.252057 -0.215441 0.011316 
-0.033330 -0.093860 -0.029737 -0.256938 -0.209616 0.010913 
-0.034281 -0.092359 -0.012468 -0.162730 -0.285404 0.046244 
-0.030101 -0.095976 0.000590 -0.050556 -0.325850 0.036620 
-0.026632 -0.096601 0.000709 -0.159132 -0.290270 0.022265 
-0.030029 -0.096312 -0.003274 -0.118868 -0.309071 0.020513 
-0.025466 -0.101274 -0.062197 -0.034352 -0.328906 0.026760 
-0.019159 -0.102587 -0.061966 -0.016755 -0.330148 0.028227 
-0.020325 -0.097222 0.000880 -0.000157 -0.330531 0.028713 
-0.008656 -0.097209 0.001096 -0.001149 -0.330549 0.028479 
-0.013551 -0.099399 -0.024138 -0.002526 -0.330545 0.028448 
-0.013376 -0.100218 -0.033565 -0.002845 -0.330549 0.028362 
-0.007490 -0.102605 -0.061748 -0.000157 -0.330531 0.028713 
-0.008190 -0.099393 -0.024040 -0.000270 -0.330549 0.028508 
-0.008015 -0.100211 -0.033466 -0.000037 -0.330549 0.028512 
0.001446 -0.100201 -0.033291 0.002220 -0.330539 0.028536 
0.006808 -0.100195 -0.033192 0.002542 -0.330543 0.028462 
0.001971 -0.102595 -0.061573 0.000842 -0.330547 0.028515 
0.006633 -0.099376 -0.023766 -0.000157 -0.330531 0.028713 
0.001271 -0.099382 -0.023865 -0.000157 -0.330531 0.028713 
0.000805 -0.097198 0.001270 0.034082 -0.328829 0.028023 
0.013640 -0.102550 -0.061361 0.016447 -0.330111 0.028840 
0.012474 -0.097185 0.001486 0.049905 -0.325737 0.038474 
0.018782 -0.096550 0.001548 0.118726 -0.308803 0.024899 
0.019948 -0.101223 -0.061359 0.178036 -0.278918 0.024153 
0.023418 -0.099177 -0.061472 0.153649 -0.293081 0.023896 
0.022484 -0.097009 -0.011011 0.158856 -0.289911 0.028134 
0.022323 -0.096253 -0.002307 0.161556 -0.285039 0.052230 
0.022251 -0.095917 0.001557 0.251953 -0.214871 0.020619 
0.026592 -0.093792 -0.028631 0.256833 -0.209036 0.020396 
0.026902 -0.092290 -0.011339 0.241315 -0.226830 0.019772 
0.026650 -0.094065 -0.031773 0.223008 -0.243527 0.032206 
0.027204 -0.096659 -0.061621 0.291137 -0.157878 0.019719 
0.029537 -0.091138 -0.034507 0.161912 -0.283335 0.059842 
0.031337 -0.090226 -0.058620 0.175482 -0.278906 0.038643 
0.031221 -0.089209 -0.052377 0.203800 -0.256484 0.052504 
0.030949 -0.086363 -0.037841 0.030320 -0.324997 0.059441 
0.047259 -0.086363 -0.037760 0.042593 -0.326690 0.039180 
0.047526 -0.087933 -0.052185 0.044322 -0.324439 0.053391 
0.059875 -0.084149 -0.037718 0.039867 -0.327548 0.034615 
0.060142 -0.085719 -0.052144 0.004207 0.227170 -0.241768 
0.220392 -0.088751 -0.016923 -0.170209 0.155126 -0.238831 
0.219288 -0.089224 -0.016902 0.006133 -0.028710 -0.330474 
0.220409 -0.090404 -0.017729 -0.242368 -0.019494 -0.225727 
0.218814 -0.090324 -0.016815 -0.170376 -0.193167 -0.209126 
0.219287 -0.091424 -0.016711 0.003987 -0.264805 -0.199844 
0.220390 -0.091894 -0.016650 0.178413 -0.192774 -0.202689 
0.221494 -0.091421 -0.016671 0.250577 -0.018937 -0.216629 
0.221968 -0.090321 -0.016757 0.178557 0.155519 -0.232393 
0.221496 -0.089221 -0.016861 -0.002790 -0.330445 -0.029553 
0.220454 -0.080540 -0.020802 0.136243 -0.300035 -0.038628 
0.216354 -0.081487 -0.020795 0.236470 -0.229150 -0.040589 
0.212884 -0.084005 -0.020641 0.304310 -0.120371 -0.054604 
0.210674 -0.087307 -0.020396 0.320341 0.005428 -0.086184 
0.210358 -0.090607 -0.020114 0.289865 0.117592 -0.110569 
0.211302 -0.095005 -0.019715 0.218941 0.216118 -0.124229 
0.213508 -0.098145 -0.019401 0.106686 0.274976 -0.151926 
0.216818 -0.100027 -0.019176 0.001053 0.292356 -0.156850 
0.220444 -0.100651 -0.019055 -0.110754 0.275892 -0.147285 
0.224072 -0.100019 -0.019043 -0.208403 0.227041 -0.122865 
0.227384 -0.098130 -0.019145 -0.288884 0.113227 -0.117477 
0.229593 -0.094985 -0.019377 -0.319465 0.004538 -0.089427 
0.230542 -0.090584 -0.019742 -0.303794 -0.115756 -0.066220 
0.230228 -0.087285 -0.020034 -0.232473 -0.231753 -0.048190 
0.228022 -0.083988 -0.020362 -0.133348 -0.301864 -0.034230 
0.224554 -0.081478 -0.020644 -0.007272 -0.059623 -0.326294 
0.220560 -0.079146 -0.026621 -0.001245 -0.055168 -0.327155 
0.215657 -0.080025 -0.025844 0.012570 -0.023165 -0.330728 
0.211500 -0.082894 -0.026084 -0.019393 -0.044490 -0.328207 
