0.036062 0.006278 -0.265171 0.236837 0.079083 -0.012420 
-0.004159 0.035118 0.164279 -0.249261 0.017046 -0.008839 
-0.095633 -0.003085 0.007981 -0.027200 -0.244959 -0.041893 
-0.087993 -0.004391 0.013961 -0.015910 -0.248368 -0.023666 
0.088048 -0.004624 0.104304 -0.002721 -0.249391 0.017230 
-0.009951 -0.024307 0.223645 -0.118271 -0.220163 0.006344 
0.137609 0.001366 0.141170 0.010868 0.249091 0.018312 
-0.029934 -0.000137 0.187718 -0.036147 -0.246454 0.021307 
0.057576 -0.000025 0.164673 0.007488 -0.249144 0.019269 
-0.107672 -0.006021 0.048858 -0.002689 -0.249812 -0.009322 
0.087950 0.006069 0.108703 0.012396 0.249058 0.017781 
-0.006375 0.033461 -0.194606 -0.042439 0.246359 -0.002462 
0.012826 -0.034444 0.024975 0.099907 -0.228214 0.020899 
-0.014412 0.014413 0.095772 -0.134489 0.210473 0.010668 
-0.067736 0.008180 0.093016 -0.013557 0.249064 0.016830 
0.155432 0.002602 0.068461 0.021090 0.248725 -0.013818 
0.070300 0.004742 0.134536 0.009556 0.248868 0.021759 
-0.133910 0.004354 0.069673 -0.019734 0.249100 -0.007722 
-0.027780 -0.032987 -0.126183 -0.171670 -0.181673 0.004910 
0.097817 -0.003105 0.125376 -0.003131 -0.249083 0.021166 
-0.158242 -0.006539 0.091625 0.003916 -0.249827 0.008418 
-0.115811 -0.005635 0.095077 0.004278 -0.249582 0.013804 
-0.033229 0.015606 -0.102283 -0.158382 0.193334 0.006066 
0.128269 0.004205 0.105670 0.012917 0.249328 0.012982 
-0.026277 0.022704 -0.311195 -0.218735 0.121022 -0.002950 
-0.053104 0.002861 0.161287 -0.005389 0.248898 0.022822 
0.073448 0.001240 0.173557 0.008315 0.248614 0.024933 
-0.004886 0.033695 -0.168968 -0.033882 0.247690 0.001181 
0.019269 -0.026762 0.057387 0.165231 -0.185910 0.025227 
-0.079494 -0.000133 -0.016311 -0.163761 -0.121685 -0.144482 
-0.068617 0.008239 0.091409 -0.013874 0.249079 0.016340 
-0.043716 -0.017014 -0.096006 -0.201896 -0.147249 0.007480 
0.012214 -0.036594 0.002412 0.089469 -0.232694 0.018670 
0.067575 -0.006181 0.022152 0.015458 -0.249297 -0.010584 
0.014671 0.004720 0.270653 0.200261 0.145345 0.035641 
-0.162467 -0.006101 0.059992 -0.003305 -0.249444 -0.016328 
0.008624 -0.043054 -0.251708 0.054724 -0.243710 -0.010507 
0.256491 -0.011011 0.121869 0.217662 0.122961 0.001964 
0.108939 0.006076 0.055342 0.023353 0.248753 -0.008753 
0.031653 0.005371 0.137244 -0.000795 0.248782 0.024637 
-0.032039 -0.013867 -0.326312 -0.241060 -0.062243 -0.022717 
-0.020750 0.002435 0.176952 -0.217231 0.123312 0.010243 
-0.029908 -0.002034 0.165710 -0.057845 -0.242002 0.024262 
-0.003170 0.032648 -0.099045 -0.025599 0.248560 0.007900 
-0.036424 -0.008017 -0.032539 0.244010 0.005676 -0.054102 
0.000529 0.103036 0.228778 0.145809 0.165900 -0.117119 
0.046086 -0.007972 -0.045214 0.219895 -0.118589 0.009100 
-0.039879 -0.016813 -0.098344 0.196164 0.154168 -0.015881 
-0.247163 -0.006934 0.102699 0.036187 -0.247148 -0.010397 
-0.044502 0.004461 0.145849 -0.003969 0.248866 0.023448 
-0.049163 -0.000856 -0.118105 -0.243234 0.057462 0.005946 
0.025536 0.016839 -0.353523 0.216546 0.116348 -0.045508 
0.001531 0.040631 0.239136 0.248563 -0.016742 0.020879 
0.002933 0.080663 0.253680 0.249057 -0.013068 0.017325 
-0.166375 0.002208 0.079987 -0.018980 0.249110 -0.009156 
0.060556 0.009672 0.076531 0.015823 0.249085 0.014368 
0.246378 -0.007053 0.106167 0.005071 -0.249931 -0.002915 
-0.017917 0.004805 0.233283 -0.216933 0.124076 0.006716 
0.027846 -0.023463 -0.333006 0.208399 -0.135963 -0.024162 
0.011096 -0.038873 -0.023759 0.077078 -0.237305 0.015670 
0.188280 -0.006465 0.104608 -0.004926 -0.249538 0.014368 
0.016978 0.027744 -0.069571 0.110810 0.223851 0.010575 
0.241033 -0.002496 0.112442 0.020935 0.249111 -0.002370 
-0.021783 -0.012224 -0.410206 -0.235709 -0.072396 -0.041233 
-0.032462 -0.010771 0.080051 -0.119438 -0.218385 0.023295 
0.161151 -0.003959 0.128080 -0.004944 -0.248810 0.023854 
0.014225 0.020296 0.046226 0.111776 0.222385 0.023476 
0.110783 0.006036 0.085402 0.015628 0.249402 0.007360 
-0.019060 0.018256 0.035949 -0.115840 0.220556 0.020882 
0.006311 -0.041819 -0.283066 0.042819 -0.245821 -0.015452 
0.174240 -0.006798 0.090361 -0.003078 -0.249936 0.004726 
-0.007603 0.022667 0.046918 -0.067464 0.239541 0.023851 
-0.017923 -0.032174 -0.338678 -0.142612 -0.203792 -0.025111 
-0.191233 0.000149 0.079768 -0.022439 0.248394 -0.017225 
0.013043 0.013099 0.174068 0.140988 0.206355 0.006314 
0.037851 -0.008494 -0.076393 0.249052 -0.018919 0.010725 
0.068013 -0.003949 -0.009092 0.030979 -0.246701 -0.026054 
0.008884 0.016239 0.144980 0.106217 0.226214 0.006720 
0.242357 -0.006552 0.093166 0.021447 -0.246194 -0.037799 
0.010303 0.010018 0.264845 0.132205 0.208847 0.037483 
-0.113734 -0.006359 0.064201 0.000296 -0.249986 -0.002654 
-0.087525 0.007535 0.036569 -0.029904 0.247969 -0.010827 
0.035457 -0.024221 -0.191727 0.220993 -0.116876 -0.001519 
0.140505 0.002037 0.130226 0.011387 0.249099 0.017891 
-0.013640 0.010984 -0.417717 -0.159083 0.188139 -0.042381 
0.015211 0.034777 -0.304527 0.122028 0.218105 -0.006249 
0.150744 0.003435 0.081619 0.017540 0.249351 -0.004058 
-0.116090 -0.003456 0.124582 0.004159 -0.249013 0.021798 
0.035328 -0.011793 0.056586 0.121159 -0.217898 0.018461 
-0.063819 -0.001819 0.139910 -0.003271 -0.249199 0.019732 
-0.021376 0.000048 0.187359 -0.130662 0.212112 0.020880 
-0.049026 0.011306 0.060298 -0.017987 0.249011 0.013036 
-0.037153 0.003091 -0.098940 -0.245182 0.047102 -0.012938 
0.019408 -0.028340 0.044919 0.158686 -0.191747 0.023489 
-0.232392 -0.003409 0.144894 -0.013680 0.249134 0.015650 
-0.084209 -0.002156 -0.005781 -0.042987 -0.240942 -0.050981 
-0.258175 -0.019787 0.133637 0.218407 -0.119701 0.021683 
0.078848 -0.002103 -0.011364 0.047641 -0.240302 -0.049850 
0.015499 -0.039072 -0.282613 0.103644 -0.226976 -0.015488 
-0.043752 -0.010631 -0.098096 0.228217 0.100455 -0.018051 
0.024060 -0.029667 -0.321398 0.176191 -0.176072 -0.021336 
-0.057620 -0.006922 0.026177 -0.017407 -0.249316 -0.006210 
-0.165348 -0.004563 0.046647 -0.030159 -0.239390 -0.065442 
-0.017755 -0.027923 0.054621 -0.155978 -0.193803 0.024720 
0.035591 -0.022722 -0.127411 0.239768 0.070765 -0.001937 
0.039795 -0.008770 -0.205150 0.249246 -0.018996 -0.003906 
0.004014 0.067303 0.204720 0.249285 0.016697 -0.008841 
0.056333 0.010904 0.057833 0.020315 0.248966 0.010162 
-0.182120 0.001029 0.112881 -0.013270 0.249414 0.010794 
-0.104319 0.006634 0.064114 -0.020995 0.249096 -0.003209 
0.002303 0.082841 0.206280 0.235722 0.069039 -0.046569 
0.000709 0.003102 -0.477678 0.016217 0.238997 -0.071537 
-0.020052 -0.007286 0.251002 -0.248755 -0.017260 0.017972 
-0.157204 -0.006713 0.082423 0.002450 -0.249982 0.001642 
-0.022609 -0.012692 0.128871 -0.229445 -0.098690 0.010739 
-0.007494 0.018134 -0.397108 -0.077248 0.234784 -0.037541 
0.028367 0.022286 -0.156172 0.176722 0.176820 0.001972 
-0.032063 0.015244 -0.244628 -0.210431 0.134664 -0.009196 
0.004800 0.018179 0.134706 0.200831 0.148740 -0.006574 
-0.158180 -0.004076 0.126371 0.004968 -0.248845 0.023484 
-0.027934 0.017805 -0.039968 -0.139804 0.207176 0.005734 
0.051176 0.005911 0.128874 0.007055 0.248838 0.023021 
0.257172 -0.018363 0.123818 -0.217639 -0.122285 0.013395 
-0.038676 -0.012297 -0.148825 -0.246672 -0.040594 0.002199 
-0.004372 0.034547 0.180804 -0.249965 0.001919 0.003736 
-0.004956 0.016040 0.185049 -0.169496 0.183313 0.012941 
-0.000346 -0.044660 -0.232686 -0.004324 -0.249848 -0.007576 
-0.085257 0.000257 0.163791 -0.000164 -0.249115 0.021010 
0.022945 -0.009675 0.164255 0.245970 -0.044035 0.007736 
-0.123465 -0.004989 0.036430 -0.007153 -0.248833 -0.023037 
0.237399 -0.002914 0.096977 0.027865 0.247419 -0.022525 
0.113599 -0.004941 0.105322 -0.004421 -0.249351 0.017447 
-0.270582 -0.037825 0.121041 -0.220506 0.116459 -0.017735 
-0.018663 -0.039835 -0.227961 -0.122115 -0.218034 -0.007022 
-0.126224 -0.000019 0.163714 0.002322 -0.248657 0.025774 
-0.032123 -0.002268 -0.334664 -0.247611 0.024732 -0.024017 
0.002929 0.033402 -0.125993 0.019447 0.249187 0.005272 
-0.216892 -0.007075 0.094144 -0.000248 -0.249982 -0.002956 
-0.023869 -0.037209 -0.186456 -0.152109 -0.198400 -0.000105 
0.049493 -0.003537 0.121952 0.008281 -0.249173 0.018552 
-0.097909 0.004942 0.117123 -0.011823 0.249038 0.018439 
0.015916 0.029565 -0.103010 0.101286 0.228441 0.007452 
0.079274 -0.006437 0.063975 0.001879 -0.249957 0.004243 
-0.042256 0.013041 -0.010844 -0.050798 0.244696 -0.006577 
-0.003168 0.082458 0.229099 -0.249728 0.011067 -0.003647 
-0.034667 -0.020896 -0.089998 -0.217742 0.122374 -0.010627 
0.262479 -0.021664 0.124822 0.217905 0.122545 0.000398 
-0.023294 -0.021358 -0.372948 -0.206757 -0.136850 -0.031997 
0.016202 0.010780 0.165882 0.173330 0.180000 0.007525 
0.015710 -0.041876 -0.137174 0.097869 -0.230010 0.004143 
-0.002783 0.048205 0.163766 -0.245894 0.037821 -0.024614 
-0.037740 -0.009144 -0.253432 -0.248767 -0.022471 -0.010484 
-0.011629 0.011911 0.220545 -0.140896 0.206375 0.007582 
0.138817 0.002475 0.125185 0.011617 0.249130 0.017301 
0.000942 -0.035892 0.038378 0.002916 -0.248959 0.022601 
-0.044726 -0.000083 0.170860 -0.014526 -0.248897 0.018414 
-0.060624 0.009759 0.074187 -0.016468 0.249085 0.013614 
0.040846 -0.017139 -0.041872 0.199333 -0.149837 0.017755 
0.019666 0.019085 -0.368941 0.178918 0.161516 -0.066339 
0.253662 -0.009312 0.139142 -0.218491 -0.119203 0.023500 
0.002287 0.049731 0.157917 0.229930 0.079966 -0.056902 
-0.002874 0.088003 0.230330 -0.249199 0.017739 -0.009222 
-0.101900 0.006424 0.048124 -0.025535 0.248476 -0.010377 
0.012981 0.035714 -0.285876 0.110678 0.223782 0.013106 
-0.004593 -0.042972 -0.075897 -0.033311 -0.247562 0.010175 
0.014478 -0.027792 0.076780 0.133543 -0.209555 0.027440 
0.033143 -0.006601 0.116734 0.090487 -0.231521 0.026650 
0.052435 0.003302 0.156786 0.005359 0.248888 0.022932 
-0.081391 0.004152 0.135962 -0.010191 0.248902 0.021067 
-0.165906 0.001734 0.115622 -0.012637 0.249329 0.013235 
0.044909 -0.011538 -0.111792 -0.223437 0.110835 -0.017075 
-0.046929 -0.007841 0.049764 -0.043525 -0.246045 0.008200 
0.001212 -0.038613 0.005384 0.006591 -0.249214 0.018683 
0.022945 -0.021718 0.064253 0.192082 -0.157925 0.025773 
0.002032 0.023993 0.043478 0.014249 0.248497 0.023375 
0.025046 -0.028191 -0.325446 0.184073 -0.167689 -0.022305 
0.036343 0.011074 -0.171699 0.226894 0.104963 0.001320 
-0.010732 0.026028 -0.003475 -0.082764 0.235253 0.017497 
0.034888 0.001697 -0.302669 0.244204 0.050265 -0.018381 
-0.007475 -0.042069 -0.065720 -0.053703 -0.243907 0.011184 
0.085612 -0.006395 0.053169 0.003773 -0.249956 -0.002752 
0.153913 -0.004601 0.119581 -0.005086 -0.248989 0.021870 
0.003401 0.073552 0.203522 0.247521 0.029563 -0.018958 
0.004074 0.038522 -0.289011 0.032846 0.247728 0.007217 
0.035069 0.002626 -0.296883 0.243112 0.055657 -0.017293 
-0.012695 0.012953 0.172978 -0.142460 0.205307 0.007353 
0.130216 0.000541 0.156495 0.010106 0.249099 0.018636 
0.059962 -0.007041 0.039125 0.012696 -0.249670 -0.001941 
-0.104894 -0.005316 0.097432 0.003909 -0.249514 0.015083 
-0.032442 -0.027569 -0.212349 -0.207349 -0.139580 -0.004840 
-0.013392 -0.042908 -0.196378 -0.086581 -0.234515 -0.002517 
-0.018630 0.009785 -0.400796 -0.192144 0.155259 -0.038408 
-0.166484 0.002438 0.092187 -0.016007 0.249487 0.000288 
-0.074875 -0.003407 -0.005826 -0.030271 -0.246218 -0.030986 
-0.250608 -0.003577 0.109169 -0.112463 0.222851 -0.013771 
0.162954 -0.000455 0.151200 0.010920 0.249162 0.017289 
-0.059233 -0.006457 0.070792 -0.004812 -0.249751 0.010054 
-0.010241 0.032066 -0.127411 -0.067065 0.240782 0.005130 
-0.018932 0.028836 -0.206252 -0.122443 0.217918 -0.004369 
0.001319 -0.027669 -0.416418 0.012507 -0.246157 -0.041838 
0.023633 -0.000153 0.190144 0.076391 0.236711 0.025146 
-0.013335 0.031659 -0.175971 -0.085515 0.234918 0.000778 
-0.157699 -0.003377 0.133495 0.004700 -0.248775 0.024264 
-0.005530 0.029437 -0.034954 -0.041893 0.246023 0.014759 
0.015933 0.033498 -0.280607 0.142984 0.204000 0.020968 
-0.007684 -0.029480 0.088704 -0.082650 -0.235667 0.011399 
-0.082669 0.000752 0.169729 -0.001173 -0.249002 0.022280 
0.004083 -0.006325 -0.492146 0.217491 -0.012991 -0.122592 
0.259896 -0.018655 0.144230 0.215796 0.125591 0.012605 
-0.034265 0.014778 -0.100837 -0.153520 0.197221 0.005934 
0.177942 -0.006764 0.093575 -0.003470 -0.249880 0.006926 
0.041016 0.012331 -0.038684 0.072578 0.238846 -0.013596 
-0.020644 0.004507 -0.407990 -0.222181 0.107323 -0.040220 
0.022260 -0.035390 -0.060661 0.147835 -0.201266 0.011692 
-0.004404 0.034161 0.173251 -0.249850 0.008467 -0.001815 
-0.016714 -0.023053 0.117455 -0.174733 -0.178659 0.007031 
0.053273 0.011724 0.014863 0.039345 0.246846 -0.004366 
-0.020534 0.000793 0.202476 -0.238687 0.073858 0.008582 
-0.017559 -0.023725 0.085256 -0.176142 -0.175459 0.026228 
0.024742 0.024886 -0.225842 0.157882 0.193748 -0.005912 
-0.145008 0.003392 0.103442 -0.013331 0.249431 0.010310 
-0.036372 -0.000614 -0.276572 -0.247295 0.033580 -0.014753 
-0.121656 -0.003382 0.126473 0.004271 -0.248970 0.022258 
-0.026668 -0.033655 -0.113672 -0.167604 -0.185395 0.006143 
0.060087 -0.006049 0.007476 0.022986 -0.248582 -0.013358 
0.019855 -0.010375 0.254716 0.242126 -0.054717 0.029680 
-0.042767 -0.014615 -0.050897 -0.210613 -0.133638 0.016825 
0.076729 -0.003584 -0.003169 0.027923 -0.246651 -0.029726 
-0.007184 0.013889 0.235163 -0.090441 0.232957 0.007164 
0.006619 0.017126 0.139165 0.155694 0.195594 0.001511 
0.046720 0.001911 0.172762 0.002565 0.248894 0.023345 
0.091510 0.004175 0.003975 0.052118 0.241373 -0.039019 
0.017418 -0.039786 -0.254070 0.112161 -0.223145 -0.011222 
0.001611 0.003181 -0.476654 0.039398 0.236382 -0.071212 
0.008460 0.036241 -0.322989 0.067349 0.239262 -0.026785 
0.031244 -0.014499 0.056017 0.149709 -0.199129 0.020848 
-0.082624 0.006690 0.103198 -0.012885 0.249088 0.016996 
-0.013458 -0.042928 -0.192920 -0.086888 -0.234408 -0.001882 
0.036050 -0.023126 -0.123214 0.013558 0.249352 -0.011813 
0.032605 0.007081 0.119887 0.003762 0.248744 0.024744 
0.020437 0.025598 -0.346430 0.169174 0.178545 -0.044740 
0.036878 -0.017648 -0.069581 -0.129107 0.211925 -0.030315 
0.012464 -0.030330 -0.380037 0.109561 -0.222248 -0.033201 
0.116929 0.004578 0.109274 0.012586 0.249223 0.015152 
-0.094057 0.005677 0.021488 -0.036663 0.246299 -0.022196 
-0.043482 -0.012410 -0.106913 0.220017 0.117703 -0.015436 
0.252531 -0.010362 0.102244 -0.210298 -0.133699 -0.019978 
-0.128631 -0.001661 0.146360 0.003588 -0.248901 0.023143 
-0.013508 -0.025865 -0.401002 -0.140508 -0.203325 -0.037637 
-0.053750 0.011482 0.011895 -0.040945 0.246550 -0.006055 
-0.169039 -0.005164 0.051741 -0.013649 -0.246746 -0.037813 
0.001953 0.090193 0.215231 0.222554 0.093849 -0.064513 
0.024268 0.025703 -0.209267 0.152658 0.197931 -0.004355 
-0.020502 0.025757 -0.077795 -0.137721 0.208412 0.009859 
-0.003587 0.031476 0.197711 -0.249275 -0.011166 0.015401 
-0.115695 0.005014 0.048175 -0.025307 0.248289 -0.014569 
0.046356 0.002682 0.164578 0.003038 0.248891 0.023324 
0.074489 -0.003675 0.115900 -0.000512 -0.249266 0.019138 
0.037031 0.008661 -0.138048 0.234201 0.087367 0.004137 
-0.093602 -0.001128 0.147852 0.001663 -0.249072 0.021454 
0.006095 0.013952 0.251346 0.070237 0.239178 0.018986 
0.204258 -0.005674 0.119935 -0.005867 -0.248949 0.022129 
0.019575 0.003676 0.216989 0.224775 0.109207 0.007059 
-0.178897 -0.002066 0.150586 0.004484 -0.248691 0.025153 
0.036941 -0.018684 -0.114508 0.236105 -0.081935 0.006405 
-0.002680 0.095264 0.257374 -0.249771 -0.004767 0.009586 
0.030732 0.019898 -0.178313 0.191273 0.160980 0.000316 
0.003213 0.085057 0.252692 0.249371 -0.010087 0.014564 
0.049883 -0.006375 -0.112027 0.247126 -0.037348 0.005837 
0.028343 -0.010155 0.107557 0.130944 -0.211041 0.028557 
-0.013391 0.030895 -0.119443 -0.088328 0.233793 0.006241 
0.040856 -0.011187 0.005786 0.135424 -0.210036 0.006716 
-0.060817 0.010005 0.069190 -0.017744 0.249073 0.012162 
0.010412 0.027345 -0.017895 0.073413 0.238364 0.017122 
0.003164 0.106827 0.266122 0.226637 0.105357 0.005962 
-0.266420 -0.030023 0.121543 -0.219523 0.119184 -0.010233 
0.092009 0.007559 0.049660 0.025502 0.248613 -0.006426 
-0.025598 0.023713 -0.127367 -0.164435 0.188231 0.005507 
0.175837 -0.004385 0.050760 0.061604 -0.205557 -0.128263 
-0.032678 0.015453 -0.084940 -0.156626 0.194702 0.007703 
0.023828 0.026370 -0.171304 0.147894 0.201559 0.001178 
-0.134412 0.004319 0.069781 -0.019722 0.249099 -0.007778 
0.019131 -0.015731 0.217830 0.219143 -0.120086 0.007460 
-0.177069 -0.002531 0.145646 0.004630 -0.248695 0.025089 
-0.248532 -0.004004 0.137866 -0.051235 0.244281 0.014204 
0.007608 0.032667 -0.121309 0.047845 0.245313 0.005675 
-0.034962 -0.021602 -0.239336 -0.227354 -0.103600 -0.008778 
-0.108931 0.004168 0.120592 -0.011628 0.249057 0.018318 
-0.017000 -0.021392 0.147570 -0.183265 -0.169879 0.007419 
0.198336 -0.003640 0.062845 0.121449 0.040243 -0.214780 
0.026440 -0.034318 -0.110036 0.161951 -0.190339 0.006537 
0.040752 -0.011481 -0.008211 0.181944 -0.170768 0.015312 
-0.035190 -0.003965 -0.299751 -0.249132 0.010620 -0.017909 
-0.031732 0.012429 -0.281106 -0.217667 0.122043 -0.015057 
-0.018739 -0.022931 0.082150 -0.181329 -0.169867 0.027658 
0.028033 0.021806 -0.120256 0.172041 0.181300 0.005647 
-0.261146 -0.021610 0.110659 -0.221039 0.114215 -0.024426 
-0.072553 -0.003947 0.112310 0.000329 -0.249306 0.018604 
0.005305 -0.037878 -0.334998 0.039770 -0.245626 -0.024209 
-0.019809 -0.002698 0.252376 -0.246816 0.032463 0.022976 
0.160128 -0.000115 0.046183 0.040157 0.240903 -0.053417 
0.251025 -0.008309 0.113611 -0.166582 -0.186342 0.005193 
0.163412 -0.006145 0.101583 -0.004802 -0.249534 0.014488 
-0.019654 -0.023440 -0.385091 -0.186168 -0.163271 -0.034410 
0.225613 -0.001504 0.116930 0.014490 0.249467 0.007513 
-0.196964 0.000336 0.092514 -0.018803 0.249161 -0.008068 
0.013099 -0.031997 0.048296 0.108967 -0.223727 0.023922 
0.034999 0.012417 -0.225919 0.222062 0.114720 -0.005253 
-0.105987 -0.000382 0.157487 0.002130 -0.249013 0.022090 
0.036383 0.005775 -0.261071 0.238104 0.075274 -0.011851 
0.216184 -0.006684 0.082935 0.006120 -0.249375 -0.016577 
-0.002628 0.022886 0.204336 -0.248701 -0.015826 0.019936 
0.049105 -0.006763 -0.017412 0.090227 -0.232822 -0.012372 
0.010522 0.018279 0.079691 0.098957 0.227841 0.028211 
0.257293 -0.014863 0.144735 -0.218482 -0.119122 0.023989 
0.035052 -0.023302 -0.230985 0.222150 -0.114428 -0.007451 
0.033908 -0.027904 -0.114647 0.160030 -0.192019 0.004357 
0.029784 -0.029504 -0.258202 0.195119 -0.155872 -0.011514 
0.003162 0.108250 0.260900 0.169690 0.183588 -0.000885 
0.013388 0.015102 0.109087 0.132482 0.211901 0.006815 
0.037729 0.012473 0.054087 0.015679 0.249046 0.015179 
0.013721 -0.040530 -0.069599 0.089817 -0.233059 0.010780 
0.040075 -0.022850 -0.135570 0.175811 -0.177737 0.000132 
-0.046502 -0.001258 0.153666 -0.012072 -0.249020 0.018533 
-0.086036 0.006488 0.103648 -0.012874 0.249107 0.016727 
0.081987 0.007161 0.015792 0.039400 0.246178 -0.018549 
0.002540 0.079038 0.257692 0.248807 -0.015016 0.019222 
-0.012229 0.011167 0.233161 -0.149252 0.200407 0.007801 
0.008370 0.023043 0.042720 0.067255 0.239665 0.023180 
0.067299 0.008882 0.082866 0.015243 0.249108 0.014584 
0.030200 -0.031084 -0.114932 0.164314 -0.188345 0.005183 
0.024941 0.001892 -0.392392 0.236691 0.071850 -0.036261 
-0.057841 -0.004859 0.100545 -0.003688 -0.249423 0.016567 
-0.086635 -0.003806 0.007359 -0.020900 -0.247417 -0.029120 
-0.003656 0.059494 0.213830 -0.249894 -0.001963 0.007015 
-0.013016 -0.023435 0.188716 -0.147165 -0.201982 0.006770 
-0.036927 -0.005215 -0.067097 -0.216732 -0.124351 -0.007997 
-0.007305 -0.035505 0.031511 -0.062155 -0.241167 0.021800 
-0.018308 0.014751 0.072055 -0.104715 0.225437 0.026700 
0.061829 -0.006902 0.054099 0.007290 -0.249860 0.004118 
0.010644 -0.035367 -0.346031 0.082596 -0.234536 -0.025896 
0.029212 -0.011519 -0.363774 0.242985 -0.050750 -0.029712 
0.275977 -0.046219 0.143356 0.216043 0.125318 0.010984 
-0.121695 -0.000047 0.162887 0.002379 -0.248803 0.024313 
0.022961 -0.037808 -0.133468 0.143658 -0.204552 0.004562 
0.015577 0.017969 0.060327 0.121506 0.217032 0.025168 
-0.079911 0.008026 0.026329 -0.034281 0.247328 -0.012398 
0.229438 -0.001884 0.100634 0.021518 0.248752 -0.012625 
-0.009272 -0.019669 0.276526 -0.138967 -0.204669 0.036039 
0.036922 -0.025656 -0.121882 0.163106 -0.189445 0.002690 
-0.173135 0.000113 0.135747 -0.011741 0.249154 0.016858 
-0.029310 0.019548 -0.111575 -0.176355 0.177087 0.006227 
0.071255 -0.006275 0.029724 0.012151 -0.249549 -0.008819 
0.000255 0.039957 0.252474 -0.248290 -0.018260 0.022770 
-0.141938 0.001629 0.134587 -0.011212 0.249093 0.018076 
-0.020568 -0.015696 0.155538 -0.225038 -0.108612 0.007833 
0.004160 0.064244 0.218609 0.249914 -0.001196 0.006425 
0.022460 -0.020406 -0.385691 0.207270 -0.135494 -0.034357 
0.099205 -0.000714 0.153031 -0.001846 -0.249047 0.021727 
0.001285 0.033962 -0.157717 0.006326 0.249910 0.002264 
0.026105 -0.028061 -0.318209 0.188059 -0.163366 -0.021104 
0.029086 0.021308 -0.142250 0.176849 0.176670 0.003483 
0.014862 -0.042300 -0.139971 0.092726 -0.232132 0.004064 
0.039962 -0.005651 -0.200515 0.249981 0.000276 -0.003072 
-0.003595 -0.008498 -0.490202 -0.190476 -0.132239 -0.093443 
0.015953 0.026532 -0.356308 0.135862 0.201910 -0.057218 
-0.028981 0.020823 -0.206936 -0.185445 0.167584 -0.005073 
-0.007549 -0.036429 0.020487 -0.061863 -0.241341 0.020668 
0.033550 0.016130 -0.172780 0.209090 0.137044 0.000770 
0.075517 0.007353 0.004304 0.046322 0.244757 -0.021174 
-0.002386 -0.030922 -0.394919 -0.027069 -0.245867 -0.036286 
0.001187 -0.026792 -0.421590 0.010871 -0.246005 -0.043167 
-0.025513 -0.014975 -0.379966 -0.232751 -0.085220 -0.032625 
0.167580 -0.000151 0.052160 0.032109 0.244993 -0.038046 
-0.000004 0.013687 -0.431617 -0.002446 0.245748 -0.045848 
0.032228 -0.021743 -0.001537 0.176145 -0.175722 0.024387 
-0.035399 0.010382 -0.224256 -0.228254 0.101780 -0.006398 
0.088405 -0.005520 0.089938 -0.002376 -0.249629 0.013395 
-0.132557 -0.001274 0.151092 0.003487 -0.248883 0.023342 
-0.026723 0.018784 -0.335891 -0.222528 0.110739 -0.026797 
-0.143714 0.001782 0.045419 -0.029137 0.246545 -0.029436 
0.261145 -0.022443 0.104417 0.102604 -0.038752 -0.224657 
-0.018081 0.027976 -0.259165 -0.148836 0.200475 0.012547 
-0.078030 -0.006336 0.041354 -0.007482 -0.249812 -0.006151 
-0.196142 -0.006699 0.103267 0.004542 -0.249672 0.011966 
0.036103 -0.026153 -0.112143 0.160389 -0.191721 0.004255 
0.271360 -0.042117 0.136833 -0.218206 -0.120608 0.018433 
0.131984 0.001631 0.140896 0.010809 0.249076 0.018557 
0.041784 -0.021053 -0.137233 0.183973 -0.169275 -0.000314 
-0.049788 -0.000087 0.167328 -0.011200 -0.249046 0.018723 
-0.106337 0.003751 0.127638 -0.011210 0.248999 0.019339 
-0.036061 0.007828 -0.236263 -0.234329 0.086752 -0.007994 
0.145526 0.003716 0.076747 0.018446 0.249243 -0.006116 
0.255129 -0.008682 0.124055 0.217025 0.123969 0.005621 
-0.264003 -0.030953 0.112259 0.209565 -0.134443 -0.022529 
0.086491 -0.000792 0.151353 -0.000611 -0.249112 0.021040 
-0.230127 -0.006629 0.087880 -0.014727 -0.247656 -0.030814 
0.006572 -0.036497 0.023743 0.050167 -0.244011 0.021020 
0.272685 -0.045231 0.126230 -0.215145 -0.127314 -0.001910 
0.037293 0.005796 -0.239082 0.238755 0.073662 -0.008349 
0.230886 -0.001816 0.105213 0.019842 0.249097 -0.007543 
0.034012 0.007602 -0.290255 0.232616 0.090115 -0.016411 
0.020628 -0.015839 0.170152 0.222191 -0.114325 0.007810 
-0.028085 0.009346 0.098412 -0.024616 0.247548 0.024775 
0.127074 -0.004870 0.035999 0.007989 -0.248626 -0.024928 
-0.028602 0.016959 -0.306390 -0.236279 0.081613 0.003435 
0.029310 -0.029483 -0.265578 0.193881 -0.157275 -0.013207 
0.111995 -0.005235 0.100478 -0.004279 -0.249459 0.015874 
0.186014 0.000217 0.073362 0.023723 0.248028 -0.020471 
0.012860 0.031716 -0.213554 0.079696 0.236910 -0.004689 
-0.189301 -0.002850 0.144815 0.004929 -0.248646 0.025512 
-0.033043 -0.027000 -0.155679 -0.210504 -0.134849 0.002009 
-0.009465 0.031767 -0.244898 -0.073572 0.238804 0.007746 
-0.033857 -0.001349 0.165257 -0.034418 -0.246803 0.020096 
0.018038 -0.040918 -0.143771 0.112625 -0.223160 0.003903 
-0.058431 -0.004929 0.099361 -0.003478 -0.249440 0.016363 
-0.023859 -0.032764 -0.047700 -0.158922 -0.192545 0.013051 
-0.041474 0.010456 -0.058194 -0.095242 0.230004 -0.022961 
-0.030452 0.014750 0.025554 -0.052163 0.244190 0.012262 
-0.048922 -0.002931 -0.098184 -0.248743 0.022755 0.010456 
-0.037784 -0.021350 -0.130960 0.174048 0.179271 -0.008315 
-0.003920 0.018344 0.130869 -0.198577 0.151626 -0.008767 
-0.135803 -0.001210 0.152268 0.003519 -0.248868 0.023500 
-0.003325 0.013285 -0.431976 -0.047484 0.241021 -0.046414 
0.274959 -0.049075 0.131330 -0.216432 -0.125033 0.004885 
0.038695 0.004672 -0.171014 0.241388 0.065042 0.001237 
0.016849 -0.039742 -0.260246 0.109811 -0.224287 -0.011693 
0.020221 0.024998 -0.053131 0.135407 0.209784 0.012480 
-0.034692 -0.022387 -0.110493 -0.215938 0.125778 -0.007127 
0.082495 0.007308 0.018910 0.037733 0.246545 -0.017078 
-0.105710 0.004291 0.120961 -0.011604 0.249040 0.018558 
0.003683 -0.031094 0.082515 0.032036 -0.246468 0.026969 
-0.033843 0.002213 -0.306670 -0.243182 0.054756 -0.019091 
-0.001807 0.064761 0.247768 -0.248667 -0.016037 0.020182 
0.032980 -0.025225 -0.253604 0.214320 -0.128214 -0.011312 
0.241179 -0.003038 0.100554 0.027293 0.247748 -0.019382 
0.008769 0.019785 -0.386829 0.085413 0.226028 -0.064154 
0.051487 0.003841 0.151147 0.005528 0.248880 0.022977 
0.039818 -0.007582 -0.149206 0.249685 -0.012160 0.003069 
0.024032 -0.037132 -0.215068 0.150939 -0.199232 -0.004880 
0.011114 0.020424 0.058754 0.094985 0.229859 0.025353 
0.019314 -0.005457 -0.433544 0.245083 0.000803 -0.049331 
0.040925 0.012491 -0.036114 0.070339 0.239567 -0.012659 
0.013966 -0.041061 -0.084136 0.089983 -0.233058 0.009321 
-0.009636 -0.035120 -0.349430 -0.081054 -0.234940 -0.027083 
-0.201644 -0.006785 0.103511 0.004264 -0.249711 0.011222 
0.027202 0.018177 -0.024802 0.128375 0.214367 0.008159 
0.012760 -0.036712 -0.001620 0.092960 -0.231370 0.018067 
0.066576 -0.006596 0.063295 0.004119 -0.249879 0.006599 
0.004333 -0.025437 -0.427254 0.052918 -0.240107 -0.045255 
0.002387 0.038893 0.227549 0.248587 -0.016579 0.020724 
0.034608 0.015651 -0.133937 0.164303 0.188411 0.002418 
0.183025 -0.000826 0.143235 0.011703 0.249177 0.016545 
-0.013931 -0.041411 -0.246659 -0.092451 -0.232074 -0.009706 
-0.090245 -0.000395 0.156192 0.000867 -0.249091 0.021279 
-0.028082 -0.022342 0.017741 -0.178788 -0.172636 0.027046 
0.261167 -0.025504 0.122051 -0.216676 -0.124539 0.006454 
0.030229 -0.022783 0.004653 0.173139 -0.178612 0.024908 
-0.001224 0.028556 0.225733 -0.248563 -0.016740 0.020879 
0.022606 0.025005 -0.264780 0.166081 0.186854 0.001653 
0.002305 0.064670 0.249188 0.248624 -0.016343 0.020469 
-0.070729 -0.002673 -0.015632 -0.040915 -0.243837 -0.037007 
-0.002531 0.038323 -0.310802 -0.023373 0.248435 -0.015294 
-0.034359 -0.024935 -0.200529 -0.218673 -0.121126 -0.003209 
-0.040142 -0.015187 -0.087536 0.201901 0.146181 -0.019158 
0.023471 -0.025415 -0.354759 0.188916 -0.161360 -0.027813 
-0.212823 -0.004942 0.071184 -0.109982 -0.083677 -0.208332 
-0.276898 -0.049145 0.146236 -0.215943 0.125421 0.011754 
-0.016427 0.026810 -0.052740 -0.114253 0.222028 0.012236 
0.006638 -0.013093 0.287897 -0.000000 0.000000 0.250000 
-0.049036 0.004442 -0.065386 -0.209386 0.103682 -0.088924 
0.014003 0.014650 0.109756 0.139139 0.207587 0.006915 
-0.003002 -0.035304 -0.361278 -0.028342 -0.246687 -0.029023 
-0.125011 -0.004990 0.036881 -0.007145 -0.248812 -0.023272 
-0.031555 -0.010438 -0.338508 -0.245635 -0.039263 -0.024936 
0.091376 0.002963 0.145645 0.009987 0.248956 0.020519 
-0.007553 0.033311 -0.187149 -0.050058 0.244937 0.000018 
-0.015365 0.004890 0.262529 -0.204833 0.138489 0.036934 
-0.020236 0.003032 0.186869 -0.213999 0.128865 0.009910 
0.009927 -0.020283 0.272923 0.134461 -0.207777 0.035339 
0.136745 -0.005190 0.042111 0.006243 -0.248863 -0.022977 
0.227818 -0.002188 0.093608 0.024615 0.247979 -0.020016 
0.038709 0.012671 0.049556 0.017601 0.248994 0.013857 
-0.001596 0.057703 0.169794 -0.233987 0.072215 -0.050350 
-0.135969 0.003370 0.113069 -0.012404 0.249263 0.014638 
-0.174153 -0.003236 0.138093 0.004824 -0.248702 0.024980 
0.073830 0.001041 0.174080 0.003877 -0.248795 0.024206 
-0.039654 -0.014484 -0.077675 0.206879 0.138574 -0.022321 
-0.024884 0.013501 0.061437 -0.065458 0.240271 0.022019 
0.161045 0.000701 0.052595 0.028869 0.246386 -0.030991 
-0.040622 0.007886 -0.135786 0.164488 -0.188115 -0.007515 
-0.014212 -0.020132 0.250842 -0.177162 -0.175639 0.016260 
-0.044214 0.012579 0.040854 -0.023651 0.248711 0.009145 
0.024918 -0.019652 -0.373407 0.214513 -0.124350 -0.031955 
-0.102243 -0.002001 0.138736 0.002834 -0.249022 0.021910 
-0.028389 0.001405 0.176812 0.007220 0.248669 0.024727 
0.156115 0.002911 0.076524 0.019109 0.249113 -0.008809 
-0.032302 0.013622 0.041341 -0.033139 0.247345 0.014912 
0.000492 0.031255 0.243987 0.248376 -0.017797 0.022194 
-0.102513 -0.002619 0.009619 -0.040631 -0.237852 -0.065388 
0.125703 -0.006365 0.063306 -0.000271 -0.249950 -0.004974 
-0.033839 -0.019189 -0.281300 -0.231836 -0.092548 -0.013663 
0.016754 -0.021332 -0.412567 0.179829 -0.168815 -0.040779 
0.024756 0.026144 -0.304093 0.203971 0.144533 0.002515 
0.036077 0.011630 -0.171840 0.225238 0.108474 0.001235 
-0.046886 -0.007792 -0.008199 -0.092128 -0.232263 -0.008131 
-0.237435 -0.003401 0.139929 -0.014893 0.249125 0.014654 
0.057507 0.004603 -0.048600 0.166598 0.167044 -0.082714 
-0.043458 0.004315 0.147572 -0.003471 0.248867 0.023522 
-0.057047 -0.002725 0.129759 -0.005081 -0.249203 0.019281 
0.001207 0.034053 -0.171092 0.005454 0.249937 0.001233 
-0.155035 -0.005420 0.110030 0.005159 -0.249240 0.018784 
-0.028854 -0.003587 -0.365831 -0.247680 0.015839 -0.030067 
-0.042008 -0.016114 -0.122409 0.199886 0.149793 -0.010381 
-0.106964 -0.004923 0.029963 -0.008560 -0.248964 -0.021058 
0.019869 0.017096 0.046350 0.110935 0.222936 0.022206 
0.067963 0.006146 0.119475 0.010426 0.248880 0.021218 
0.026515 0.023363 -0.124013 0.164989 0.187749 0.005387 
0.004947 0.036716 0.181963 0.249965 0.003269 0.002580 
-0.200707 -0.000651 0.126565 -0.012854 0.249246 0.014531 
0.233893 -0.002606 0.130615 0.014446 0.249183 0.014115 
0.033446 -0.027456 -0.086823 0.157872 -0.193687 0.007839 
0.047746 -0.001667 0.147831 0.011303 -0.249052 0.018584 
0.027911 -0.020188 -0.348551 0.219630 -0.116486 -0.026335 
0.032142 0.015685 -0.027729 0.099892 0.229175 0.000537 
-0.026993 -0.028653 -0.029115 -0.161510 -0.190142 0.016142 
0.151197 -0.005131 0.112568 -0.005167 -0.249168 0.019706 
-0.022485 -0.014961 -0.399972 -0.229049 -0.093191 -0.036770 
0.022952 0.007120 0.125504 0.072668 0.237782 0.026058 
-0.039749 -0.006625 0.093218 -0.061034 -0.241551 0.020687 
0.123665 0.002792 0.032440 0.033723 0.245704 -0.031496 
0.002998 0.018694 0.109686 0.069553 0.239602 -0.015907 
-0.021638 0.007786 0.121240 -0.081459 0.234994 0.025344 
0.022621 -0.006337 0.186704 0.249740 -0.008573 0.007509 
-0.179698 -0.002506 0.052321 -0.080631 0.194719 -0.134474 
0.022851 0.008409 0.115137 0.069542 0.238807 0.025198 
0.264787 -0.025924 0.131321 0.216800 0.124300 0.006858 
0.005058 -0.030250 0.091310 0.047877 -0.245235 0.008230 
-0.018816 0.024182 -0.032055 -0.134419 0.210287 0.014512 
-0.096461 0.003054 0.141688 -0.010325 0.248966 0.020227 
-0.008653 0.032984 -0.163346 -0.058044 0.243162 0.001713 
0.061705 -0.002449 -0.029113 0.055800 -0.240566 -0.038911 
-0.018920 0.009719 -0.399673 -0.193513 0.153622 -0.038117 
-0.094324 0.007486 0.064404 -0.020935 0.249122 -0.000045 
0.063170 -0.000821 0.152801 0.004587 -0.249185 0.019637 
-0.266763 -0.030410 0.125348 -0.218500 0.121429 -0.003562 
0.096344 -0.004356 0.109525 -0.003443 -0.249293 0.018475 
0.027242 0.022342 -0.234952 0.173497 0.179842 -0.007449 
-0.183198 0.001305 0.090967 -0.017690 0.249313 -0.005484 
0.016348 -0.025268 -0.395709 0.157708 -0.190661 -0.035730 
0.020064 0.026044 -0.070174 0.131122 0.212586 0.010691 
-0.001777 0.097912 0.274415 -0.248880 -0.014522 0.018655 
-0.069452 0.009043 0.015438 -0.039572 0.246538 -0.012379 
-0.022497 -0.000804 0.194375 -0.211687 0.125871 0.042956 
-0.125708 0.004740 0.061382 -0.021633 0.248849 -0.010298 
-0.002322 0.074049 0.198754 -0.244660 0.043696 -0.027060 
-0.038391 0.002440 -0.152823 -0.244931 0.050038 0.002217 
0.034579 0.009476 -0.268685 0.229269 0.098856 -0.012782 
-0.033981 -0.025003 -0.216455 -0.217173 -0.123735 -0.005058 
0.265291 -0.026664 0.124802 0.218348 0.121730 -0.002424 
0.003777 0.067442 0.199837 0.248589 0.022778 -0.013593 
0.013330 -0.031850 -0.366131 0.110446 -0.222313 -0.029641 
0.029258 0.010536 0.085557 0.027344 0.247357 0.023812 
-0.176269 0.001716 0.101884 -0.014509 0.249519 0.005438 
-0.045995 -0.014914 -0.140538 -0.210103 -0.135485 -0.000720 
0.140138 -0.003644 0.127124 -0.004650 -0.248898 0.022983 
0.038946 -0.012751 -0.000018 0.180793 -0.171793 0.017348 
-0.078161 0.005511 0.121462 -0.010970 0.248908 0.020604 
-0.015677 -0.036199 -0.016702 -0.115695 -0.221016 0.016323 
0.155690 0.000866 0.048836 0.029807 0.246096 -0.032380 
0.029530 0.019199 -0.249750 0.190862 0.161160 -0.009955 
-0.036837 0.012815 0.048621 -0.017784 0.248961 0.014214 
-0.016869 0.008275 0.193288 -0.193869 0.157708 0.006550 
-0.108726 0.005979 0.089665 -0.014888 0.249374 0.009536 
-0.183507 0.001296 0.091676 -0.017515 0.249338 -0.004849 
-0.151874 0.002592 0.112877 -0.012554 0.249325 0.013384 
-0.151522 -0.006672 0.078776 0.002069 -0.249991 -0.000104 
0.067801 0.008376 -0.001536 0.049208 0.244367 -0.019055 
-0.002820 -0.031473 0.080061 -0.028856 -0.246738 0.028065 
-0.035205 -0.012024 -0.043321 -0.248846 0.023498 -0.004834 
0.245678 -0.003609 0.099994 0.030358 0.246979 -0.024080 
-0.207010 -0.000550 0.090740 -0.021167 0.248745 -0.013337 
0.160061 -0.002922 0.040355 0.145727 -0.038423 -0.199468 
0.100278 -0.002563 0.131985 -0.003003 -0.249037 0.021717 
0.030039 0.016140 -0.002966 0.084972 0.235025 0.006566 
-0.035438 0.009300 -0.237459 -0.230724 0.095918 -0.008142 
0.014603 -0.024731 0.134485 0.148684 -0.200834 0.007655 
0.020616 0.012905 -0.380433 0.189993 0.154919 -0.049017 
0.032123 -0.029477 -0.171586 0.200358 -0.149515 0.001369 
-0.032449 -0.011126 -0.328025 -0.245297 -0.042501 -0.022868 
0.018198 -0.020050 -0.410572 0.193775 -0.152899 -0.039664 
-0.031045 0.013754 0.041985 -0.039027 0.246437 0.015670 
0.212765 -0.007064 0.097420 -0.001578 -0.249987 0.001947 
0.016053 0.030587 -0.264412 0.158090 0.190561 0.034557 
0.170026 0.002218 0.089219 0.016881 0.249412 -0.002940 
0.024878 0.025910 -0.301556 0.205959 0.141600 0.005515 
-0.048828 -0.008054 -0.107047 -0.241279 -0.065230 0.005445 
-0.027494 0.003351 0.157032 0.002546 0.248685 0.025479 
0.031101 -0.013148 0.069334 0.141026 -0.205149 0.022920 
-0.015144 -0.032107 -0.353631 -0.126134 -0.214092 -0.027472 
0.042182 0.013393 0.000599 0.044321 0.246021 -0.003028 
-0.002766 -0.023144 -0.439816 -0.046817 -0.240559 -0.049393 
-0.017952 -0.039003 -0.086457 -0.119103 -0.219618 0.009088 
0.118129 -0.005970 0.089014 -0.003931 -0.249718 0.011202 
0.126622 0.001903 0.029179 0.041423 0.242594 -0.043955 
0.020706 -0.015355 0.174833 0.224438 -0.109893 0.007140 
-0.023754 0.025594 -0.140579 -0.152183 0.198306 0.003891 
0.246276 -0.005494 0.091391 0.144361 0.045707 -0.198924 
0.027047 0.022503 -0.236024 0.172387 0.180897 -0.007671 
0.270048 -0.036219 0.145402 0.215830 0.125558 0.012355 
0.144317 -0.003815 0.126127 -0.004761 -0.248901 0.022931 
-0.002399 0.101115 0.242727 -0.248587 0.022923 -0.013393 
-0.085376 0.001818 0.161895 -0.008902 0.248971 0.020830 
0.239756 -0.006154 0.124573 -0.006039 -0.248892 0.022723 
-0.151130 -0.003650 0.129384 0.004739 -0.248828 0.023713 
-0.009528 0.013811 0.204249 -0.113105 0.222756 0.009309 
0.141018 0.002696 0.120396 0.011864 0.249187 0.016286 
-0.109890 0.005751 0.051164 -0.024447 0.248551 -0.011173 
-0.171339 0.001775 0.078884 -0.019738 0.248966 -0.011235 
-0.114234 -0.005945 0.088384 0.003825 -0.249724 0.011096 
0.012246 -0.031760 0.054010 0.103894 -0.225974 0.025334 
0.258691 -0.017659 0.103448 0.216837 0.061920 -0.107923 
0.027756 -0.033969 -0.213480 0.174790 -0.178674 -0.004913 
-0.154898 0.001626 0.055487 -0.025852 0.247482 -0.024177 
-0.074335 -0.003801 -0.002989 -0.026936 -0.247027 -0.027424 
0.005017 0.025617 0.022256 0.037643 0.246204 0.021599 
-0.260642 -0.019779 0.117066 -0.219508 0.119195 -0.010433 
-0.089006 -0.001835 0.139234 0.001642 -0.249093 0.021214 
0.262560 -0.022995 0.141826 0.215829 0.125555 0.012400 
0.029484 0.016531 -0.316991 0.236890 0.079774 -0.004399 
0.037291 0.006345 -0.115317 0.238429 0.074917 0.006248 
0.060523 0.005813 0.126585 0.008949 0.248842 0.022304 
-0.024769 -0.032138 -0.286034 -0.172382 -0.180402 -0.015475 
0.031059 0.016332 -0.050818 0.138875 0.207878 0.000794 
-0.070099 0.003222 0.151763 -0.008524 0.248908 0.021723 
0.127279 0.004903 0.089568 0.015045 0.249466 0.006350 
0.149896 -0.005901 0.054382 0.003351 -0.249423 -0.016634 
-0.012634 0.035185 -0.280816 -0.117643 0.219821 0.018404 
-0.160217 -0.006365 0.096696 0.004491 -0.249681 0.011793 
-0.069264 -0.006686 0.045869 -0.008235 -0.249855 -0.002187 
0.243300 -0.005203 0.134971 -0.007957 -0.248519 0.025976 
0.023908 0.010389 -0.373658 0.215473 0.117695 -0.047110 
-0.064179 0.010285 0.054249 -0.023054 0.248869 0.005696 
-0.080125 -0.002772 0.127487 0.001100 -0.249152 0.020541 
-0.168676 -0.005972 0.106282 0.005124 -0.249389 0.016697 
0.018442 -0.040772 -0.206570 0.116302 -0.221265 -0.003951 
-0.045058 -0.006335 -0.096451 0.246189 0.038350 -0.020505 
0.023660 0.024312 -0.336758 0.190528 0.158581 -0.032418 
-0.006698 -0.042792 -0.079696 -0.047605 -0.245230 0.009799 
-0.020146 -0.000988 0.232994 -0.243722 0.055251 0.006850 
0.182316 -0.000825 0.143724 0.011668 0.249177 0.016571 
-0.036658 0.008500 -0.205262 -0.233147 0.090098 -0.004971 
0.042000 0.011869 0.059556 0.015662 0.249049 0.015148 
-0.048397 0.012390 0.013885 -0.039230 0.246889 -0.002600 
0.004182 -0.000545 -0.485431 0.142935 0.188929 -0.079845 
-0.016526 0.028786 -0.253967 -0.128253 0.214469 0.007366 
-0.144871 -0.005531 0.105667 0.005018 -0.249359 0.017167 
-0.037599 -0.024207 -0.108632 -0.169167 -0.184004 0.005006 
0.063524 -0.006498 0.023684 0.016235 -0.249319 -0.008728 
0.036550 -0.012634 -0.278469 0.245080 -0.047274 -0.014184 
-0.020289 0.005149 0.152310 -0.150768 0.198603 0.018057 
0.018717 0.007400 0.176593 0.203682 0.144798 0.006854 
-0.053076 0.008802 0.094660 -0.011342 0.248988 0.019404 
-0.034579 0.013109 -0.156868 -0.220563 0.117673 0.002251 
-0.047252 0.012468 0.006030 -0.042843 0.246262 -0.004389 
-0.021615 0.002368 -0.408088 -0.231886 0.084485 -0.039891 
-0.016269 0.025982 -0.036498 -0.114958 0.221594 0.013448 
-0.178484 0.001094 0.115638 -0.012922 0.249362 0.012309 
-0.005782 0.004338 -0.466223 -0.128390 0.205347 -0.062038 
-0.007391 0.033342 -0.176685 -0.049197 0.245110 0.000760 
0.035625 0.000943 -0.294643 0.245410 0.044551 -0.017006 
-0.032954 -0.004421 -0.327466 -0.248847 0.007713 -0.022704 
-0.005440 -0.013894 -0.472721 -0.139839 -0.195546 -0.068608 
-0.000036 0.019808 -0.394543 -0.006712 0.246439 -0.041508 
-0.045305 0.004256 -0.075515 -0.215260 0.125875 -0.017855 
-0.074423 0.002928 0.153420 -0.008780 0.248922 0.021466 
0.043730 -0.005119 -0.074219 -0.247644 0.019777 -0.027947 
-0.061356 -0.006377 0.017584 -0.018692 -0.249083 -0.010397 
-0.104395 0.002765 0.141165 -0.010487 0.248992 0.019827 
-0.005520 0.037050 -0.319795 -0.047871 0.244172 -0.024252 
-0.031736 0.017131 -0.219524 -0.204063 0.144305 -0.005854 
-0.036480 0.005934 -0.103507 -0.238352 0.075069 0.007275 
-0.109729 0.005595 0.047651 -0.025524 0.248357 -0.012937 
0.039760 -0.021640 -0.081786 0.180709 -0.172514 0.009123 
-0.017534 -0.004451 -0.438143 -0.244651 0.015285 -0.049115 
-0.060330 0.003878 0.147965 -0.007592 0.248884 0.022336 
0.001053 0.020182 0.111467 0.068628 0.226107 -0.081643 
0.205292 -0.000125 0.096582 0.018642 0.249211 -0.006789 
0.164261 -0.000223 0.147022 0.011105 0.249158 0.017238 
0.023738 0.025171 -0.241074 0.151616 0.198594 -0.008552 
0.016444 -0.032815 0.022324 0.127075 -0.214273 0.020957 
-0.033435 0.008999 -0.280971 -0.229380 0.098287 -0.014985 
-0.037162 0.007141 -0.092984 -0.198624 0.084792 -0.125931 
-0.009634 0.019092 0.073485 -0.092031 0.230865 0.027047 
-0.038548 -0.013226 -0.204636 -0.245442 -0.047361 -0.003912 
-0.087488 -0.005935 0.037501 -0.006897 -0.249702 -0.010067 
0.262792 -0.025154 0.106158 0.216402 0.068309 -0.104901 
-0.014083 0.012877 0.144464 -0.153313 0.197333 0.007404 
0.015587 -0.024220 -0.403715 0.158199 -0.189644 -0.038836 
-0.164553 -0.006677 0.073613 0.000381 -0.249929 -0.005927 
0.069360 0.008434 0.003214 0.046264 0.245048 -0.017634 
0.036225 0.008104 -0.245469 0.233517 0.088767 -0.009487 
0.018324 0.020323 0.022777 0.127432 0.214120 0.020334 
0.024063 0.020285 -0.024709 0.143560 0.204294 0.012439 
-0.030242 -0.008013 0.112838 -0.108815 -0.223371 0.027656 
0.014878 0.013857 0.114606 0.149493 0.200255 0.007069 
-0.029266 0.004695 -0.349391 -0.242395 0.053072 -0.030467 
-0.002351 0.033254 -0.230779 -0.017616 0.249272 -0.007289 
-0.077240 0.005937 0.116743 -0.011332 0.248938 0.020041 
0.087491 -0.003795 0.115456 -0.002510 -0.249230 0.019442 
0.252618 -0.005649 0.139224 0.191448 0.160202 0.013532 
0.065761 -0.005409 0.090580 0.001534 -0.249573 0.014516 
-0.003377 0.013350 -0.431608 -0.048003 0.240942 -0.046290 
0.057501 -0.001059 -0.043193 0.104045 -0.219517 -0.059050 
0.027974 -0.016448 0.062467 0.167017 -0.184536 0.023492 
0.016774 -0.008974 -0.444000 0.240420 -0.047231 -0.049676 
0.069712 -0.006088 0.076904 0.001465 -0.249765 0.010743 
0.006308 -0.040619 -0.300770 0.043676 -0.245494 -0.018032 
0.063221 0.007457 0.106173 0.011293 0.248943 0.019999 
0.034100 -0.001547 0.163761 0.039126 -0.246013 0.021132 
-0.035408 -0.022002 -0.131093 -0.248502 -0.027263 0.001916 
-0.016320 -0.022557 0.136679 -0.174171 -0.179189 0.007463 
0.238501 -0.006097 0.124835 -0.006208 -0.248851 0.023118 
-0.026640 0.004321 0.147153 -0.006123 0.248455 0.027067 
-0.092952 -0.005962 0.041518 -0.005304 -0.249760 -0.009580 
-0.002236 0.031313 -0.063285 -0.018361 0.249055 0.011601 
0.043586 0.011050 -0.045913 0.076799 0.237126 -0.019312 
-0.037251 0.006804 -0.151519 -0.237473 0.078111 0.002339 
-0.070752 -0.004315 -0.001634 -0.025416 -0.247594 -0.023482 
-0.034908 -0.024101 -0.135901 -0.004344 0.249864 -0.006986 
0.052483 -0.003785 -0.036835 0.087194 -0.232419 -0.029639 
0.009362 -0.011667 -0.469447 0.202196 -0.131545 -0.065671 
0.084177 -0.005760 0.084421 -0.001611 -0.249714 0.011840 
-0.164387 -0.005988 0.104762 0.004994 -0.249423 0.016215 
0.204847 -0.000448 0.088214 0.021511 0.248655 -0.014428 
-0.005893 -0.041947 -0.057687 -0.043249 -0.245937 0.012015 
-0.033250 0.002259 0.169146 0.003185 0.248791 0.024347 
-0.016651 -0.024100 0.089768 -0.169455 -0.183532 0.010049 
0.245363 -0.005457 0.133165 -0.007719 -0.248590 0.025368 
0.030216 0.012489 -0.327161 0.241472 0.063250 -0.013817 
-0.070937 0.004597 0.135641 -0.009572 0.248875 0.021674 
-0.128659 0.004136 0.054645 -0.023575 0.248445 -0.014802 
-0.019292 0.007254 0.145155 -0.177162 0.175952 0.012430 
-0.023002 -0.035942 -0.091669 -0.151623 -0.198587 0.008588 
0.031226 0.015952 -0.015336 0.090783 0.232909 0.003442 
0.063418 0.002493 0.162648 0.007005 0.248915 0.022190 
0.041481 0.007104 0.118630 0.004739 0.248846 0.023519 
-0.045914 -0.006763 -0.046898 -0.213691 -0.129741 0.001866 
-0.048785 -0.008051 -0.111920 -0.243057 -0.058317 0.004748 
-0.075101 -0.006235 0.034391 -0.009831 -0.249672 -0.008183 
-0.077280 0.005325 -0.009127 -0.062710 0.238973 -0.038199 
-0.185004 0.000610 0.118473 -0.012890 0.249333 0.012918 
-0.090624 -0.001119 0.147729 0.001363 -0.249087 0.021296 
-0.078809 -0.006105 0.075837 0.000163 -0.249827 0.009307 
0.260664 -0.019100 0.113156 0.220379 0.116928 -0.016149 
-0.273306 -0.042296 0.126088 -0.219638 0.118876 -0.011296 
0.007276 0.029107 -0.032666 0.049616 0.244600 0.014450 
0.017466 -0.007549 -0.441462 0.243874 -0.024904 -0.049044 
-0.193343 0.000235 0.117218 -0.013324 0.249370 0.011702 
0.018006 0.029109 -0.120119 0.113136 0.222860 0.005809 
-0.013116 0.001288 -0.452026 -0.217126 0.111448 -0.054183 
0.275699 -0.049706 0.138477 -0.218075 -0.121057 0.016989 
0.118988 -0.002004 0.141043 -0.003512 -0.248944 0.022682 
-0.021040 -0.007488 0.216612 -0.248939 -0.021848 0.007218 
0.007544 0.010364 0.270963 0.098333 0.227082 0.035559 
-0.095536 0.003671 0.007003 -0.054828 0.239434 -0.046533 
-0.004963 0.026966 0.003603 -0.040831 0.245958 0.018375 
0.027101 0.005061 0.140164 0.005950 0.248614 0.025604 
0.087256 0.008154 0.059872 0.022324 0.249001 -0.000175 
0.010651 0.032506 -0.205405 0.065817 0.241150 -0.003821 
-0.045438 0.004357 -0.074733 -0.213158 0.127172 -0.029849 
0.023871 0.021133 -0.035417 0.154325 0.196265 0.012802 
0.276199 -0.046420 0.141394 0.216229 0.125084 0.009944 
0.198899 -0.005514 0.065321 0.031436 -0.235350 -0.078245 
0.003899 -0.030439 0.091863 0.035894 -0.247293 0.007591 
0.236473 -0.002208 0.107406 0.021276 0.248986 -0.007294 
-0.036650 -0.016445 -0.246221 -0.240160 -0.068803 -0.009447 
-0.006872 -0.030449 -0.392247 -0.069527 -0.237475 -0.035661 
-0.006564 0.009618 -0.444465 -0.102188 0.222379 -0.051040 
0.037522 0.013732 -0.029486 0.072326 0.239207 -0.006982 
0.036569 0.010596 -0.113924 0.059357 -0.242737 -0.007451 
0.070267 -0.000208 0.159176 0.002915 -0.249173 0.020107 
-0.043560 0.013069 0.025299 -0.031658 0.247958 0.003798 
0.008731 0.023489 -0.377122 0.082267 0.221046 -0.082891 
-0.020599 0.002359 0.182973 -0.182787 0.169915 0.014759 
0.266931 -0.033194 0.141407 -0.218483 -0.119292 0.023120 
-0.000256 0.041770 0.247851 -0.248563 -0.016741 0.020879 
-0.031016 -0.001994 0.163457 -0.053372 -0.243089 0.023647 
0.003066 0.005307 -0.467898 0.060463 0.233969 -0.064053 
0.152258 0.003350 0.092155 0.015223 0.249513 0.003368 
0.080673 -0.005630 0.086698 -0.001294 -0.249668 0.012813 
0.038349 -0.011440 -0.246902 0.246815 -0.038573 -0.009736 
0.118306 -0.006348 0.062875 -0.000143 -0.249968 -0.004008 
0.001288 -0.009309 0.287897 -0.000000 0.000000 0.250000 
-0.072210 -0.001562 -0.020248 -0.059003 -0.236885 -0.053887 
0.010451 -0.032614 0.053665 0.088826 -0.232327 0.025182 
-0.042471 -0.016306 -0.062312 -0.203945 -0.143930 0.013807 
0.189213 0.000707 0.112278 0.013505 0.249442 0.009813 
-0.043392 0.012372 0.047459 -0.020606 0.248887 0.011432 
-0.131804 -0.002049 0.142710 0.003829 -0.248884 0.023282 
0.178267 -0.001998 0.051966 0.085996 0.196960 -0.127716 
0.099133 0.003694 0.132726 0.010837 0.248958 0.020065 
-0.001650 -0.044973 -0.218105 -0.012788 -0.249614 -0.005397 
0.231550 -0.001965 0.102758 0.021332 0.248839 -0.011145 
-0.024103 -0.034794 -0.257502 -0.161518 -0.190449 -0.011872 
-0.012235 -0.043139 -0.145852 -0.079346 -0.237054 0.003087 
0.046701 -0.008492 0.011210 0.079331 -0.237071 -0.001927 
-0.114030 -0.004378 0.026952 -0.011142 -0.248174 -0.028029 
-0.039342 -0.002618 -0.178455 -0.249262 0.019197 0.000289 
0.020422 -0.026379 0.052385 0.172072 -0.179653 0.024814 
0.027421 -0.012361 -0.376316 0.240239 -0.060996 -0.032630 
-0.125275 0.003688 0.043752 -0.027435 0.247565 -0.021423 
-0.235988 -0.002261 0.106133 -0.021992 0.248857 -0.009303 
-0.060366 -0.002833 0.127635 -0.003691 -0.249214 0.019460 
0.045886 -0.012584 -0.069138 0.219938 -0.118136 0.013079 
0.026071 -0.000072 -0.388099 0.242174 0.051203 -0.035071 
0.014411 -0.023318 0.173835 0.155362 -0.195698 0.008050 
0.005110 0.027697 0.175159 0.249940 -0.000112 0.005500 
0.128459 -0.002423 0.138027 -0.003944 -0.248898 0.023117 
-0.028922 -0.018199 0.035142 -0.180606 -0.171120 0.024480 
-0.021352 -0.003045 0.203168 -0.247898 0.031386 0.007855 
-0.001110 0.001243 -0.482913 -0.049084 0.231488 -0.080648 
-0.028137 0.021877 -0.160039 -0.179400 0.174100 0.002154 
0.003816 0.078923 0.234998 0.249935 -0.000637 0.005674 
0.020819 0.015058 0.062059 0.098885 0.228376 0.023794 
0.003665 0.077094 0.214106 0.248935 0.020227 -0.011050 
0.037666 0.000685 0.185773 -0.000524 0.248371 0.028489 
-0.161373 -0.006295 0.098555 0.004625 -0.249624 0.012895 
-0.016946 -0.039136 -0.266427 -0.115456 -0.221392 -0.012471 
-0.029443 -0.001957 -0.359607 -0.246580 0.029479 -0.028800 
