-0.092483 -0.005085 0.197789 -0.041068 0.245825 0.019578 
-0.004535 -0.042739 -0.252320 -0.011988 -0.249491 -0.010519 
0.000788 0.013752 0.265907 -0.001452 -0.095673 0.230964 
0.037242 0.006302 0.189148 0.107850 0.225105 0.014000 
-0.011823 0.041707 -0.349021 -0.140296 0.179147 -0.103554 
0.040051 0.004829 0.220911 -0.023988 0.248779 0.005799 
-0.091850 -0.005826 0.045925 -0.002181 -0.249922 0.005835 
-0.069715 -0.010656 -0.052607 -0.158813 -0.193002 0.005336 
-0.082674 -0.006402 -0.003564 -0.001961 -0.249946 0.004836 
-0.040664 -0.049559 0.113279 0.168321 -0.184841 -0.001331 
-0.092731 -0.010970 0.231891 0.043348 -0.246212 -0.000578 
0.129768 -0.004046 -0.089709 0.055962 -0.227481 -0.087295 
0.017456 0.025603 0.061414 0.093352 0.231075 0.019744 
0.003531 0.084580 0.175474 0.249998 0.000744 -0.000745 
0.005816 -0.033068 0.125259 0.027723 -0.247515 0.021623 
-0.039688 0.001401 -0.302179 -0.228187 -0.100084 -0.020351 
-0.029271 -0.036410 0.102940 -0.194916 0.156519 0.003111 
-0.023730 -0.002473 -0.232582 -0.027809 -0.248431 -0.002920 
-0.073551 -0.006263 0.025470 -0.029204 -0.248287 0.000982 
0.181860 0.001667 0.009542 0.001281 0.249889 0.007347 
0.025369 0.037292 -0.305404 0.249700 0.012190 -0.001207 
-0.008895 0.058276 -0.293397 -0.092350 0.232316 0.000718 
0.013114 -0.055064 -0.128802 0.053684 -0.244119 -0.004880 
-0.073228 -0.003809 -0.126249 -0.105674 -0.204448 -0.097643 
-0.007882 0.030374 0.038081 -0.054798 0.243068 0.020377 
0.150807 0.002379 -0.010370 0.001995 0.249931 0.005514 
-0.034693 -0.034853 -0.254575 -0.149715 -0.200198 -0.002499 
0.152824 0.000791 0.029864 -0.000807 0.249572 0.014606 
-0.218590 0.000329 0.041672 0.000677 0.249609 0.013967 
0.153732 -0.000574 0.049990 -0.001447 0.249297 0.018681 
0.011331 -0.010069 -0.415939 0.047287 -0.245151 -0.012846 
-0.139369 -0.013173 0.186788 -0.051047 0.244289 -0.014739 
-0.042552 0.012098 0.085589 -0.075046 0.237727 0.018811 
-0.116733 -0.003246 -0.099738 -0.059585 -0.225001 -0.091235 
-0.230126 -0.000275 -0.021881 -0.044086 0.239847 -0.055045 
-0.010251 -0.045359 -0.222183 -0.032773 -0.245552 -0.033615 
-0.069715 -0.010043 -0.070377 -0.162392 -0.190075 -0.000644 
-0.064359 -0.005322 0.231244 0.030648 -0.247976 0.008273 
-0.031514 -0.030129 0.050114 -0.171489 -0.180200 0.024884 
-0.120910 -0.033908 -0.170852 0.053272 0.232889 -0.073654 
-0.110898 -0.006168 -0.087255 -0.017617 -0.248055 -0.025656 
0.103431 -0.012722 0.212852 -0.043584 -0.246167 0.001448 
0.038643 -0.017096 -0.222886 0.190095 0.162310 0.004369 
-0.054495 -0.004683 0.200727 0.012004 -0.249674 -0.004350 
-0.084436 -0.009528 0.211563 0.043479 -0.246188 0.001103 
0.045954 0.016110 -0.008242 0.113621 0.222636 0.004849 
-0.154017 -0.005694 0.004667 -0.001901 -0.249935 0.005390 
0.014583 -0.007758 -0.434726 0.086697 -0.232873 -0.027452 
-0.036100 -0.041669 -0.151696 -0.192220 -0.159701 -0.006843 
0.009952 -0.007900 -0.449196 0.058603 -0.241365 -0.028438 
-0.121947 -0.062724 -0.110284 0.027298 -0.248418 0.006587 
-0.189725 -0.005550 -0.003376 -0.002938 -0.249958 0.003499 
-0.144260 0.000883 0.027866 0.000791 0.249578 0.014501 
0.104012 -0.001504 0.058549 -0.001184 0.249258 0.019214 
-0.041735 0.016447 0.027017 -0.103878 0.227074 0.012108 
0.256854 -0.004421 0.021237 0.003900 -0.249968 0.001023 
-0.129778 -0.047526 0.062979 -0.098515 -0.131747 0.188249 
0.117742 -0.005769 0.021551 -0.100103 -0.225063 0.042731 
-0.270134 -0.004077 0.039223 -0.002195 -0.249972 0.003031 
0.002467 0.141039 0.206517 0.240059 0.050148 -0.048548 
-0.105207 -0.044264 -0.128760 0.249453 0.003770 -0.016093 
0.001965 -0.039177 0.072300 0.007069 -0.248119 0.029780 
-0.026057 -0.019266 0.200316 -0.194115 -0.156464 0.018396 
-0.087228 0.001070 0.021198 0.000979 0.249515 0.015532 
0.003531 0.112225 0.214918 0.250000 0.000000 0.000000 
-0.002676 0.146556 0.238214 -0.249997 0.000811 -0.000786 
-0.137532 0.000265 0.037126 0.001227 0.249427 0.016868 
0.029438 0.007050 -0.419006 0.234899 0.072546 -0.045383 
-0.031642 0.005061 0.213224 0.131772 0.209105 0.037569 
-0.210253 0.000285 0.041792 0.000771 0.249570 0.014631 
-0.147647 -0.005364 0.038090 -0.002764 -0.249979 0.001728 
0.040809 -0.020956 -0.187512 0.233330 0.089758 -0.000588 
-0.002676 0.105379 0.232166 -0.250000 -0.000000 -0.000000 
0.030086 0.028995 -0.065348 0.152576 0.197970 0.005351 
-0.114681 -0.001544 0.059784 0.001188 0.249208 0.019845 
0.089898 -0.006403 -0.099773 0.018390 -0.247908 -0.026525 
0.031102 -0.003100 -0.291843 0.047312 -0.245260 0.010455 
-0.040127 0.000033 -0.273219 -0.131363 -0.212348 -0.012345 
0.082758 0.002986 -0.018984 0.000776 0.249845 0.008781 
-0.226602 -0.000103 0.049057 0.001048 0.249486 0.015995 
-0.014731 -0.028991 0.148006 0.013432 -0.249340 0.012213 
0.016258 -0.010185 -0.235640 0.133031 0.205823 -0.049394 
0.129831 -0.005614 0.028601 0.035653 -0.245864 0.027922 
0.011904 0.057232 -0.292944 0.111815 0.223586 0.002616 
-0.093122 -0.005080 0.065793 -0.001803 -0.249603 0.013957 
0.008367 0.042237 -0.148997 0.061228 0.242325 0.005434 
0.028932 -0.036972 0.133626 -0.176777 -0.176776 -0.000000 
0.003531 0.056958 0.177833 0.249690 0.012443 0.000000 
0.198008 0.001823 -0.012417 0.005045 0.249946 -0.001273 
0.089347 -0.010257 0.262774 -0.041469 -0.243781 0.036757 
-0.028638 -0.044729 -0.189716 -0.121044 -0.217392 -0.024276 
-0.034477 -0.037568 -0.028018 -0.184045 -0.168103 0.019201 
0.029686 -0.002051 -0.257592 0.034407 -0.247583 0.004347 
-0.042685 -0.003212 0.251478 0.048623 -0.242309 0.037711 
0.023169 -0.024599 -0.281714 -0.000289 0.003181 -0.249979 
-0.038195 -0.017203 0.076505 -0.228788 -0.098682 0.020440 
0.022646 0.021030 0.087617 0.105832 0.226345 0.008216 
0.083286 0.003565 -0.039395 0.002085 0.249934 0.005355 
-0.092247 0.003284 -0.079723 -0.009175 0.249637 -0.009853 
-0.041749 -0.026977 -0.131443 -0.249935 -0.002098 -0.005307 
0.026683 0.019526 -0.378206 0.169346 0.182403 -0.023473 
0.125766 -0.050106 -0.202480 0.089144 -0.213724 -0.094209 
0.136609 -0.040493 -0.167452 0.220929 0.099588 -0.061421 
-0.203411 -0.004817 0.030888 -0.002326 -0.249970 0.003100 
0.196606 -0.005116 0.016674 0.002112 -0.249949 0.004611 
0.181270 0.001914 -0.000234 0.002172 0.249938 0.005128 
-0.140438 -0.013169 0.194338 -0.046582 0.245610 0.002473 
0.021288 -0.006003 -0.309765 0.052438 -0.244006 0.014529 
-0.057742 0.005201 -0.181753 -0.190484 0.159531 -0.027674 
0.005255 0.038748 0.227437 0.249762 0.010910 0.000000 
0.010769 -0.029132 0.206020 0.071623 -0.239485 -0.004139 
0.268228 -0.001101 -0.000729 0.091372 0.173441 -0.155143 
0.126217 -0.011283 0.175000 0.056357 0.240487 -0.038601 
-0.027558 -0.041509 -0.011552 -0.138045 -0.206954 0.024769 
0.204758 -0.004564 0.059808 0.001338 -0.249781 0.010382 
-0.024929 0.032230 -0.069105 -0.131062 0.212692 0.009202 
-0.002676 0.163042 0.253325 -0.249996 0.001046 -0.001032 
0.017688 -0.054088 -0.116866 0.076915 -0.237874 0.000428 
0.001259 0.017222 -0.437790 0.004762 0.242426 -0.060884 
0.127773 -0.001198 0.056130 -0.000032 0.249124 0.020906 
-0.020645 0.033271 -0.240171 -0.193362 0.158354 0.005933 
0.096313 -0.011255 0.171264 -0.039135 -0.246681 -0.010820 
0.120477 -0.029052 -0.147445 -0.067734 0.236727 -0.043271 
-0.125326 -0.010837 0.178584 -0.053574 0.242633 -0.027552 
0.005164 -0.030805 0.160463 0.027189 -0.248288 0.010678 
0.203350 0.000739 -0.034261 0.023083 0.246785 -0.032627 
-0.021259 -0.023589 0.195818 -0.149690 -0.200105 0.007149 
-0.002676 0.123497 0.236729 -0.250000 -0.000000 -0.000000 
0.012890 0.051891 -0.325298 0.127626 0.204570 -0.066052 
-0.080223 -0.004729 0.072427 -0.003003 -0.249098 0.021006 
-0.247379 -0.003927 0.067467 -0.002027 -0.249392 0.017308 
0.066463 -0.006534 -0.134286 0.146940 -0.195583 -0.051536 
0.222639 -0.004511 0.042978 0.002633 -0.249979 0.001819 
-0.035750 0.019156 -0.233305 -0.151173 0.199061 -0.004624 
0.041458 -0.003566 -0.188802 0.027151 -0.246947 -0.027928 
0.005255 0.036203 0.193641 0.249992 0.001945 0.000000 
-0.245515 -0.004603 0.017658 -0.003642 -0.249968 0.001652 
-0.049909 0.012055 -0.147520 -0.127745 0.214740 -0.008240 
-0.257690 -0.004110 -0.002792 -0.013471 -0.248928 -0.018795 
-0.133872 -0.057212 -0.023852 -0.130501 -0.213110 0.007314 
-0.136968 0.002850 -0.031507 -0.003716 0.249967 0.001634 
-0.104815 -0.039768 -0.062206 0.247938 0.032019 -0.001250 
0.000801 -0.049098 -0.006313 0.001858 -0.248283 0.029194 
-0.129146 -0.056778 0.013881 -0.078363 -0.236702 0.018204 
0.111620 -0.030659 -0.117995 -0.164241 0.188141 -0.011302 
0.069418 -0.005429 0.190878 -0.055207 -0.243806 -0.003261 
0.003531 0.130787 0.248590 0.250000 0.000000 0.000000 
0.065268 -0.005170 0.062939 -0.010035 -0.249519 0.011807 
-0.001094 0.025578 0.203835 -0.033735 0.073653 0.236510 
0.007543 -0.006052 -0.264616 0.157981 -0.191906 -0.026724 
-0.137045 -0.053800 -0.023093 -0.178963 -0.174470 0.005699 
0.133547 0.001775 0.009776 0.000113 0.249764 0.010860 
-0.014885 0.038363 -0.223384 -0.174323 0.178686 0.013530 
-0.047230 0.014528 0.016725 -0.098141 0.229805 0.007606 
0.041573 0.012207 0.091467 0.076851 0.237093 0.019519 
-0.121632 -0.059242 -0.012846 0.021175 -0.248940 0.008968 
0.077578 -0.007507 -0.048179 0.039400 -0.246828 0.004858 
-0.268419 -0.004077 0.040340 -0.002293 -0.249970 0.003083 
-0.143755 -0.004653 0.067368 -0.001803 -0.249299 0.018620 
-0.123544 -0.061137 -0.052792 0.005235 -0.249793 0.008714 
0.043480 -0.017793 -0.091959 0.184952 -0.167510 -0.015269 
-0.033346 -0.003575 -0.194887 -0.055027 -0.241548 -0.033565 
-0.217459 -0.004683 -0.025517 -0.020194 -0.247348 -0.030183 
-0.015963 -0.009257 -0.354500 -0.052144 -0.244386 0.007514 
-0.113177 -0.056479 -0.157385 0.172074 -0.177086 -0.039132 
0.030046 -0.012273 -0.234739 0.077778 0.237464 -0.007854 
0.149571 -0.020946 0.211408 0.012238 -0.249697 0.001278 
0.143533 -0.040522 -0.003843 0.249979 -0.003239 -0.000414 
-0.177466 -0.005658 -0.002412 -0.002419 -0.249946 0.004588 
0.012209 -0.052337 -0.051407 0.056279 -0.242689 0.020853 
0.178568 -0.005753 -0.007929 0.002835 -0.249956 0.003768 
0.117700 -0.016931 -0.069352 -0.249067 0.020714 -0.006045 
-0.053661 -0.003347 0.114240 0.017170 -0.249409 0.000333 
-0.023555 -0.022151 0.254380 -0.211877 -0.125970 0.041709 
-0.041242 -0.024811 -0.171509 -0.246696 0.040232 -0.004753 
-0.126283 -0.006904 0.025697 -0.075469 -0.224948 0.078757 
-0.188370 0.001486 0.014671 -0.001085 0.249875 0.007826 
-0.052366 -0.017490 -0.065747 -0.015489 -0.249435 0.006513 
-0.188820 -0.005032 0.024291 -0.002270 -0.249963 0.003676 
-0.139360 -0.019225 0.215992 0.043719 -0.246139 0.002082 
0.003531 0.133210 0.237754 0.250000 0.000000 0.000000 
0.043663 -0.050528 0.143385 0.229067 0.097009 0.024849 
-0.028752 -0.001243 0.225463 -0.239324 0.047719 -0.054285 
-0.129522 -0.021792 0.009773 -0.191205 0.158837 0.026671 
0.020318 -0.000948 0.265907 -0.072159 -0.025095 0.238041 
-0.067569 -0.001450 -0.146265 -0.241294 -0.024817 -0.060509 
-0.133052 -0.029126 0.058392 -0.159809 0.148801 0.121734 
-0.130347 -0.019236 -0.003927 -0.239461 0.071499 0.006799 
0.265481 0.000152 0.046006 0.000283 0.249789 0.010257 
-0.089983 -0.000322 0.041750 0.001355 0.249342 0.018071 
0.039211 -0.037373 -0.186990 0.205698 -0.141707 -0.010364 
0.091208 -0.000242 0.040677 -0.001359 0.249348 0.017988 
-0.127612 -0.062148 -0.110608 -0.038945 -0.246904 0.004660 
-0.016519 0.016272 0.241254 -0.146194 0.201517 0.022764 
0.055342 0.007843 -0.177884 0.149063 0.200201 -0.014146 
-0.002250 0.041311 0.245366 -0.158654 -0.081976 0.174954 
0.150032 -0.018526 0.248381 0.086927 0.230515 0.042503 
-0.141043 -0.016746 0.243836 -0.042001 0.245613 0.020257 
0.035247 -0.004170 0.180378 0.123622 -0.217261 0.003897 
-0.105015 -0.040637 -0.102165 0.246847 0.039574 0.000745 
0.106723 -0.013384 0.190003 -0.042614 -0.246331 -0.002203 
-0.088237 -0.003488 0.168991 -0.055688 0.241780 -0.030681 
0.128163 -0.010356 0.021343 0.145643 -0.172049 0.108108 
-0.047915 0.002261 -0.242322 -0.194374 -0.154716 -0.027958 
-0.136178 -0.053608 0.013479 -0.160657 -0.190730 0.017642 
-0.074263 -0.007349 -0.040175 -0.078330 -0.237347 0.005530 
-0.042165 -0.022410 -0.262224 -0.243511 0.056589 0.000249 
0.036730 0.021860 -0.134757 0.162819 0.189666 -0.004129 
0.032707 -0.038991 0.109438 0.176777 0.176777 0.000000 
-0.022820 0.035505 -0.286386 -0.244434 0.049687 0.016823 
0.014058 -0.031210 0.257297 0.122319 -0.212452 0.049012 
0.113799 -0.007071 -0.065072 -0.101864 -0.228275 -0.003793 
0.025612 -0.003398 -0.279251 0.037799 -0.246822 0.012254 
-0.002234 0.033090 0.010101 -0.015999 0.248802 0.018479 
0.023914 -0.009368 -0.207387 0.184814 0.161259 -0.048367 
-0.031609 0.025635 -0.026382 -0.138161 0.208027 0.011666 
0.032361 0.006467 0.230432 -0.188503 0.162736 0.021996 
-0.263536 -0.004290 0.023518 -0.004250 -0.249964 0.000262 
-0.237247 -0.004643 0.022328 -0.002746 -0.249962 0.003347 
-0.108282 0.000065 -0.105599 -0.044652 0.236123 -0.068937 
-0.038512 -0.013170 0.092425 -0.237169 -0.076516 0.019899 
-0.014217 0.028690 0.035868 -0.083400 0.234792 0.020429 
-0.026766 -0.005937 -0.341110 -0.080214 -0.236708 0.005919 
-0.046793 0.014783 -0.109936 -0.126005 0.215883 -0.004178 
0.008170 0.042627 -0.172927 0.073100 0.239062 0.002393 
0.018386 -0.045855 -0.005703 0.085242 -0.233342 0.028021 
0.037774 -0.000275 -0.321215 0.213923 -0.128913 -0.010874 
0.019673 0.036860 -0.158054 0.143103 0.204956 -0.003806 
-0.031550 0.006661 0.224174 0.176487 0.176546 0.013559 
-0.002676 0.118640 0.205454 -0.249995 0.001064 -0.001049 
0.003531 0.111750 0.242439 0.250000 0.000000 0.000000 
-0.020676 0.048670 -0.296944 -0.211064 0.133920 0.004191 
0.026040 0.027684 -0.005025 0.110659 0.223398 0.018658 
0.050135 -0.012212 -0.130721 0.033993 -0.243716 -0.044122 
-0.037758 -0.038863 -0.175529 -0.202446 -0.145921 -0.014914 
0.147761 0.002034 0.002435 0.000881 0.249856 0.008440 
0.107747 -0.005310 -0.096575 0.026369 -0.245289 -0.040470 
0.118406 -0.060401 -0.077770 -0.085664 -0.234750 0.007357 
-0.016044 0.044232 -0.247573 -0.221506 0.106746 0.045170 
0.020917 0.000546 0.271702 -0.226882 -0.085460 -0.061001 
0.004435 0.048045 0.216213 0.248728 0.025182 0.000000 
-0.169166 -0.005271 0.019892 -0.002184 -0.249961 0.003843 
-0.114037 -0.004400 -0.097167 -0.037740 -0.239962 -0.059108 
-0.132492 -0.025730 -0.066951 -0.208575 0.137735 -0.005039 
0.119013 0.001584 0.013694 -0.000335 0.249686 0.012523 
-0.129022 0.002798 -0.021553 -0.002200 0.249940 0.005020 
-0.001868 0.040619 -0.098194 -0.009808 0.249427 0.013774 
0.003962 0.050457 0.218452 0.248667 0.025779 0.000000 
0.046087 -0.016990 -0.048138 0.139332 -0.206938 0.016223 
0.197875 0.001093 0.024839 0.000414 0.249804 0.009883 
-0.044877 -0.002802 0.104785 -0.066337 -0.240976 0.005451 
-0.128783 0.001779 0.009706 -0.000047 0.249756 0.011040 
-0.023733 0.024648 -0.342122 -0.207607 0.136990 -0.025163 
0.041712 0.011478 0.099783 0.073603 0.238121 0.019520 
-0.010981 0.032526 0.002043 -0.056284 0.242720 0.020480 
-0.129254 -0.061787 -0.136157 -0.078823 -0.236768 -0.015101 
0.065125 0.008335 -0.011929 0.115173 0.221889 -0.000578 
0.032841 -0.039125 0.153974 0.182309 0.169335 0.024272 
0.040854 -0.021010 -0.187141 0.233522 0.089257 -0.000787 
-0.004063 0.045582 0.159799 -0.248750 0.024964 0.000000 
0.091167 -0.007149 -0.089475 0.011440 -0.249383 -0.013320 
0.072248 -0.007232 0.209874 -0.070799 -0.239763 0.000995 
-0.044174 0.003916 -0.269538 -0.245755 -0.033240 -0.031613 
-0.022984 0.029205 -0.300615 -0.243462 0.056790 0.001074 
-0.046352 0.010360 0.095977 -0.069133 0.239586 0.017873 
0.228793 -0.000603 0.056348 -0.001873 0.249153 0.020470 
-0.033994 -0.039609 -0.203108 -0.157903 -0.191220 -0.031651 
0.050763 0.009296 0.097389 0.062925 0.241373 0.016714 
0.037488 0.005799 0.199452 0.095859 0.230605 0.011504 
0.105951 -0.039248 -0.100856 -0.243346 0.057292 0.000077 
0.120311 -0.015679 0.265301 -0.041364 -0.224779 0.101308 
-0.164384 -0.005983 -0.013260 -0.002771 -0.249953 0.003975 
0.018103 0.003089 -0.462063 0.223091 0.062319 -0.094056 
0.098748 0.003406 -0.038599 0.002586 0.249951 0.004234 
-0.033970 0.013020 -0.322192 -0.217374 0.122701 -0.013891 
-0.002667 -0.054656 -0.066550 -0.016044 -0.248915 0.016853 
0.228794 -0.004919 0.008434 0.003713 -0.249967 0.001724 
-0.137544 -0.014727 0.225706 -0.041230 0.245844 0.018995 
-0.031422 -0.037522 -0.002187 -0.163893 -0.187245 0.024053 
0.178797 -0.000710 -0.059631 0.087727 0.195629 -0.128582 
0.001488 0.150612 0.213399 0.185266 0.119127 -0.118260 
0.055674 0.008640 -0.161018 0.133837 0.210907 -0.010284 
0.043780 -0.002740 0.094613 0.114466 -0.221837 0.013637 
0.031247 0.028431 -0.082478 0.166002 0.186927 0.001249 
-0.047101 0.015282 -0.052965 -0.119883 0.219379 -0.001016 
0.115010 -0.039646 -0.174414 -0.194244 0.140319 -0.071274 
-0.121858 -0.028664 -0.149135 0.027028 0.244354 -0.045396 
-0.011638 0.025276 0.197306 -0.090761 0.223437 0.065866 
0.122026 0.002565 -0.070367 0.010728 0.249440 -0.012831 
0.022882 0.035034 -0.125276 0.142687 0.205268 -0.002344 
-0.027367 0.013579 0.205602 -0.146079 0.171968 0.107646 
0.003151 0.030039 -0.375861 0.020502 0.238664 -0.071548 
-0.002676 0.071822 0.176563 -0.250000 -0.000000 -0.000000 
-0.129118 -0.029331 -0.146771 -0.083812 0.231661 -0.042528 
-0.059474 -0.000641 0.253264 -0.078350 0.233321 0.043849 
0.131446 -0.020026 -0.014360 0.231356 0.094709 -0.002187 
-0.082846 0.002237 -0.105635 -0.014929 0.248788 -0.019544 
-0.015672 0.017825 0.233219 -0.132140 0.211202 0.020800 
-0.259500 0.000318 0.003016 -0.018655 0.247887 -0.026536 
0.122921 -0.060025 -0.032601 -0.022290 -0.248793 0.010247 
-0.017856 0.048048 -0.266046 -0.214968 0.121249 0.039845 
0.055009 0.010749 0.051376 0.076774 0.237688 0.010493 
-0.059076 -0.015693 -0.043869 -0.025998 -0.247919 0.018978 
-0.022978 -0.014601 -0.281200 -0.005229 0.133865 -0.211075 
-0.094050 -0.006795 -0.023533 -0.001810 -0.249920 0.006060 
0.222012 0.000160 0.044535 -0.000799 0.249565 0.014714 
0.206041 -0.000579 0.054202 -0.001469 0.249288 0.018795 
-0.015237 0.025934 0.064118 -0.088800 0.233051 0.017369 
-0.130842 0.001833 0.008442 -0.000144 0.249771 0.010702 
-0.041496 -0.026170 -0.157473 -0.249451 0.016040 -0.004078 
0.136894 -0.000778 0.051372 -0.001413 0.249273 0.018999 
-0.127068 -0.015451 0.256972 -0.042336 0.245133 0.024851 
-0.132430 -0.023604 0.025212 -0.125651 0.215369 0.018110 
0.023642 -0.009821 -0.215016 0.165048 0.182758 -0.043112 
0.140221 -0.046800 -0.152678 0.245878 -0.024029 -0.038294 
0.033514 -0.013655 -0.217302 0.132046 0.212262 -0.002930 
0.005538 -0.032712 0.264283 0.052972 -0.234662 0.068028 
-0.004013 -0.043417 -0.242548 -0.011292 -0.248867 -0.020919 
-0.037335 0.021690 -0.060024 -0.150936 0.199290 0.001335 
-0.061113 0.007330 0.079544 -0.075940 0.237872 0.012242 
-0.036093 0.005436 -0.342338 -0.244890 0.047883 -0.015365 
-0.251813 -0.000530 0.057414 0.001355 0.249387 0.017445 
0.015455 -0.033067 0.103429 0.031411 -0.246928 0.023233 
0.143111 -0.038086 -0.011304 0.247642 0.034130 -0.002935 
-0.030849 -0.039744 0.093406 0.159271 -0.190972 -0.025736 
0.000166 0.172058 0.238185 -0.017745 0.234546 -0.084695 
0.006644 -0.007712 -0.293566 0.036064 -0.247068 0.012523 
-0.094840 -0.011459 0.196350 0.043336 -0.246215 0.000344 
0.029790 -0.048307 -0.140400 0.137584 -0.208625 -0.006805 
0.037421 -0.035497 -0.207318 0.190287 -0.160695 -0.021634 
-0.136868 0.000293 0.036666 0.001217 0.249431 0.016811 
-0.056815 0.010810 -0.061972 -0.102137 0.228158 -0.003426 
-0.126908 -0.055093 -0.181350 -0.076225 -0.230282 -0.060500 
-0.141160 -0.035653 -0.046221 -0.238243 0.075745 -0.001652 
0.043576 -0.018653 -0.050532 0.190554 -0.161428 0.011409 
0.148445 -0.015195 0.183676 0.070984 0.237892 -0.029474 
-0.169199 -0.005802 -0.005838 -0.002394 -0.249944 0.004696 
-0.014873 -0.006028 -0.447991 -0.112026 -0.220737 -0.035007 
-0.142665 -0.018807 0.176793 0.029349 -0.243870 -0.046542 
0.026259 -0.023309 0.143440 0.219395 -0.118482 0.018106 
-0.013038 -0.054927 -0.125091 -0.058176 -0.243115 -0.003277 
-0.004539 -0.023361 0.265907 0.000000 -0.000000 0.250000 
-0.008096 0.054341 -0.253242 -0.109424 0.220419 0.044068 
-0.105167 -0.037550 -0.012803 0.246704 0.040352 -0.003006 
-0.041616 -0.003694 -0.186769 -0.030317 -0.246515 -0.028477 
-0.027910 -0.036806 0.149466 0.176777 -0.176777 -0.000001 
-0.188855 -0.000006 -0.049405 -0.043086 0.237748 -0.064182 
0.066547 -0.013068 -0.021966 0.096603 -0.229300 0.024271 
0.018933 0.030822 -0.351282 0.195127 0.141281 -0.066822 
-0.003063 0.043310 0.249403 -0.106844 -0.221617 0.044385 
0.024639 -0.030923 0.137220 0.240611 0.067106 0.010156 
0.199947 0.001044 0.026089 0.000347 0.249796 0.010084 
0.121125 -0.015852 0.240286 -0.043327 -0.246213 -0.001292 
0.169770 -0.005590 0.004232 0.002012 -0.249936 0.005281 
-0.102750 -0.004878 0.067952 -0.002176 -0.249196 0.019912 
0.039989 -0.032669 -0.040833 0.218816 -0.120245 0.012667 
0.050063 -0.006873 0.033602 0.031350 -0.246485 0.027610 
-0.083053 -0.007614 -0.081639 -0.006976 -0.249866 -0.004266 
0.015185 0.026485 -0.379866 0.095402 0.228162 -0.036612 
-0.074604 -0.007825 0.204926 0.055652 -0.243723 0.001316 
0.138540 -0.035285 -0.144598 0.206897 0.134831 -0.038911 
-0.044797 0.016546 -0.025987 -0.121074 0.218712 0.002498 
0.039367 -0.014384 -0.126006 0.211112 -0.125938 -0.045511 
0.031625 -0.039665 0.153223 -0.171340 -0.181128 0.018309 
0.007787 -0.010866 -0.408861 0.027980 -0.248282 -0.008563 
-0.000821 -0.031565 0.152828 -0.005234 -0.249543 0.014181 
0.010557 0.039717 -0.092706 0.045694 0.245442 0.013039 
0.133037 -0.023721 -0.019027 0.211292 0.133547 -0.004556 
-0.041942 -0.026070 -0.261920 -0.247234 -0.037042 0.001750 
0.151606 0.001155 -0.068567 0.021354 0.247732 -0.025943 
0.002172 -0.055015 -0.069557 0.005332 -0.249421 0.016151 
-0.027032 -0.025046 0.115021 -0.226076 -0.104746 0.020441 
-0.084861 -0.005044 -0.112599 -0.031153 -0.243867 -0.045371 
0.112959 -0.043470 -0.172540 -0.235670 0.048761 -0.067689 
0.002868 0.067668 0.134790 0.244624 0.036711 -0.036214 
0.028965 -0.017688 0.230104 0.230981 -0.091830 -0.026740 
-0.095550 -0.006156 0.205051 -0.041053 0.245891 0.018764 
0.043445 -0.021641 -0.038647 0.221874 -0.114553 0.012227 
0.173686 -0.004869 0.057550 0.002369 -0.249899 0.006686 
-0.009963 -0.042455 -0.252692 -0.025419 -0.248509 -0.009841 
0.034326 -0.003678 -0.193179 0.057378 -0.240652 -0.035977 
-0.117285 0.002038 0.003833 -0.000183 0.249774 0.010628 
-0.074204 -0.007413 -0.042816 -0.080206 -0.236724 0.005333 
-0.105432 -0.046035 -0.078465 0.245646 -0.046432 0.001490 
-0.056986 0.010434 -0.080189 -0.105022 0.226819 -0.004838 
0.010320 -0.000616 -0.482160 0.224921 -0.035185 -0.103308 
-0.044207 0.003569 0.228039 -0.049400 0.244884 0.009566 
0.036264 -0.040294 -0.063623 0.188132 -0.164105 0.013252 
0.243321 -0.004422 -0.009235 0.011710 -0.248997 -0.019060 
0.064382 0.007106 0.067489 0.108685 0.224910 0.010156 
0.034286 0.024934 -0.095078 0.170214 0.183094 -0.001942 
0.025753 -0.032037 0.129724 0.232643 0.091132 0.008479 
-0.142732 -0.040407 -0.034758 -0.249547 0.014932 -0.001793 
0.011327 -0.055614 -0.113985 0.047884 -0.245369 0.001018 
-0.092336 -0.008427 0.243843 -0.041926 0.245810 0.017875 
0.112428 -0.026555 0.028179 -0.172321 0.179832 0.021583 
-0.002676 0.093944 0.221845 -0.250000 -0.000000 -0.000000 
-0.054719 0.005506 -0.204638 -0.199648 0.147054 -0.031868 
-0.030721 -0.040431 -0.215336 -0.130018 -0.212717 -0.018619 
-0.108522 -0.002831 -0.105789 -0.076278 -0.207686 -0.116397 
0.026066 -0.049965 -0.097162 0.121912 -0.218096 0.008459 
0.171169 0.001348 0.019356 0.000196 0.249776 0.010575 
0.142469 -0.046357 -0.097797 0.247077 -0.037961 0.003458 
-0.276505 -0.000538 0.059002 -0.037867 0.246368 0.019206 
-0.049644 0.007174 0.128617 -0.055697 0.243154 0.016550 
0.026472 0.004159 0.249153 0.226462 0.101767 0.029302 
0.058504 -0.015850 -0.040987 0.023900 -0.247912 0.021643 
0.109785 -0.006746 -0.026021 -0.035249 -0.247438 0.005647 
-0.021481 -0.007608 -0.399669 -0.098228 -0.229656 -0.010463 
0.052954 -0.014513 -0.024958 0.007063 -0.248112 0.029845 
-0.021259 0.002410 -0.452567 -0.237544 0.012304 -0.076952 
0.015761 -0.011911 -0.254703 0.053063 0.241665 -0.035810 
0.004025 -0.009818 -0.434240 0.018566 -0.248589 -0.018942 
-0.116845 -0.011405 -0.059721 0.240814 -0.067122 -0.001734 
0.020129 0.023345 0.073923 0.099938 0.228384 0.018797 
0.083564 -0.009317 0.183867 -0.042759 -0.246312 -0.001473 
-0.024833 0.025878 -0.306583 -0.231800 0.093465 -0.005722 
0.012776 -0.047577 -0.006994 0.060068 -0.240990 0.028558 
0.097704 -0.006242 -0.000892 0.001979 -0.249946 0.004799 
-0.118306 -0.018388 -0.090826 0.232041 0.078350 -0.050179 
0.006377 0.038795 -0.073168 0.025939 0.248143 0.015882 
-0.027584 -0.015225 0.242364 -0.241039 -0.063288 0.019876 
0.003531 0.134395 0.224481 0.249997 0.000836 -0.000840 
-0.104634 -0.039147 -0.019597 0.249384 0.017448 -0.001815 
-0.036223 -0.012091 0.125463 -0.225524 -0.106240 0.018755 
-0.023555 0.031686 -0.310530 -0.244633 0.050657 -0.009405 
0.088569 -0.002586 0.070738 -0.002874 0.247540 0.034871 
-0.083263 0.003580 -0.080564 -0.008247 0.249734 -0.008054 
0.027418 0.029654 -0.177473 0.170164 0.183087 -0.004831 
-0.137496 -0.005108 0.058279 -0.001856 -0.249832 0.008966 
0.135973 -0.027232 -0.055932 0.209027 0.137022 -0.005717 
0.135887 -0.012180 0.188048 0.049344 0.244951 -0.008019 
-0.136735 -0.004710 0.067241 -0.001866 -0.249351 0.017902 
0.122873 -0.062454 -0.140344 -0.023082 -0.248012 -0.021377 
-0.036402 -0.014258 -0.156280 -0.210709 0.133124 -0.019485 
0.025439 -0.033479 0.122595 -0.127206 -0.215132 0.006075 
0.084980 -0.006429 -0.005354 0.001906 -0.249940 0.005105 
-0.031188 -0.017940 0.139807 -0.199397 -0.149597 0.019014 
-0.272594 0.000511 0.023512 -0.003291 0.249977 -0.000744 
-0.225226 -0.004531 0.037385 -0.002477 -0.249973 0.002768 
0.109493 -0.013790 0.237034 -0.043371 -0.246207 -0.001028 
0.005255 0.035546 0.110385 0.239368 0.071604 -0.008705 
0.022159 -0.030199 0.158126 -0.087514 -0.233233 0.021059 
0.028614 -0.035531 0.086769 0.191070 -0.155527 -0.042471 
0.272611 -0.004152 0.025223 0.003704 -0.249972 -0.000567 
0.172402 0.000901 0.028802 -0.000468 0.249655 0.013121 
-0.033259 -0.000040 -0.387595 -0.236296 -0.078997 -0.020587 
0.038855 -0.046895 0.139131 -0.168875 -0.184331 0.001821 
0.066035 0.000419 0.194163 0.056454 0.243402 0.008268 
0.104384 -0.006824 -0.027545 0.001974 -0.249926 0.005739 
0.023234 0.025230 -0.350083 0.193139 0.155309 -0.032812 
-0.041523 -0.002864 -0.195082 -0.030154 -0.246981 -0.024312 
0.016985 -0.045277 -0.215570 0.054015 -0.241686 -0.034207 
0.003531 0.068144 0.206831 0.250000 0.000000 0.000000 
0.049617 0.013744 0.017764 0.093032 0.231965 0.006123 
0.025983 -0.006126 -0.173438 0.162999 -0.160390 -0.101026 
-0.002676 0.123789 0.251256 -0.249998 -0.000364 0.000878 
0.003531 0.124774 0.232763 0.250000 0.000000 0.000000 
0.039516 -0.011351 -0.140329 0.168349 -0.174030 -0.062225 
-0.193883 0.000636 0.034756 0.000525 0.249641 0.013371 
-0.053926 -0.017071 -0.086699 -0.028244 -0.248014 -0.013826 
0.125343 -0.013937 0.244063 0.041993 0.245679 0.019457 
-0.013034 -0.053774 -0.152512 -0.057146 -0.242821 -0.016493 
0.040268 -0.016306 0.064961 0.235687 -0.081738 0.016451 
-0.119490 0.003165 -0.040917 -0.003837 0.249967 0.001430 
0.042279 0.000319 -0.259616 0.107831 -0.225149 -0.013423 
-0.141595 -0.035783 -0.024964 -0.240221 0.069123 -0.003948 
0.019115 -0.052564 -0.152135 0.078094 -0.236982 -0.015522 
-0.026272 -0.039091 -0.251704 -0.085695 -0.234695 -0.008630 
0.007468 0.027574 0.158750 0.199531 0.150614 0.001756 
0.135117 -0.056491 -0.017032 0.137966 -0.208402 0.005822 
-0.222171 0.000410 0.040074 0.000416 0.249664 0.012960 
-0.105667 -0.045353 -0.026697 0.243051 -0.058482 0.002481 
0.034042 -0.040326 0.144594 0.176776 0.176777 -0.000000 
0.019067 -0.041154 -0.256798 0.050621 -0.244791 -0.003862 
0.016065 0.034726 -0.039227 0.069967 0.239333 0.018010 
0.021924 -0.012267 -0.257046 0.014134 0.249072 -0.016227 
0.030059 -0.005074 -0.367265 0.148742 -0.200878 -0.004866 
-0.002676 0.109642 0.206850 -0.250000 -0.000000 -0.000000 
-0.268402 -0.003978 0.048556 -0.002379 -0.249980 0.002046 
-0.028972 0.008260 -0.414095 -0.228186 0.092856 -0.042532 
-0.130591 -0.009851 -0.056977 -0.220554 -0.117687 -0.002397 
-0.001283 0.058245 -0.266154 -0.014165 0.247453 0.032658 
0.054451 0.012130 -0.062365 0.104845 0.226936 -0.002715 
-0.115980 -0.014830 0.178266 0.039034 -0.246644 -0.011968 
0.113648 -0.010918 0.230414 0.041455 0.245865 0.018212 
0.082281 -0.005856 0.048146 0.003051 -0.249904 0.006227 
0.015982 -0.043708 0.016963 0.075614 -0.236401 0.029947 
0.067150 -0.004220 0.113173 0.088466 -0.233824 0.000404 
0.043012 -0.010984 0.018659 0.199737 -0.148562 0.023120 
0.058690 0.001412 0.215184 0.048145 0.245279 0.004519 
0.074675 0.002839 -0.104551 0.044773 0.245446 -0.015867 
0.029749 -0.018051 0.169294 0.192879 -0.158495 0.013310 
-0.111562 -0.027071 0.031206 0.176611 0.175335 0.023795 
0.111980 -0.048470 -0.169279 -0.237575 -0.051385 -0.058460 
0.022380 0.040069 -0.327040 0.231265 0.083142 -0.045867 
0.042045 -0.031667 -0.151050 0.243707 -0.055623 -0.003587 
0.137821 -0.002301 -0.088672 0.128848 -0.092966 -0.193016 
0.005527 0.029011 0.066242 0.172913 0.180490 0.004967 
0.013538 -0.033831 0.239377 0.109082 -0.224005 0.020568 
0.023994 -0.051462 -0.131270 0.105151 -0.226777 -0.003962 
0.143310 0.002286 -0.057862 0.010478 0.249484 -0.012167 
-0.117219 -0.025830 -0.102662 0.153094 0.194076 -0.037373 
-0.091911 0.003608 -0.068866 -0.006415 0.249881 -0.004296 
0.031451 -0.047210 -0.127942 0.151240 -0.199058 -0.001600 
0.131446 -0.014715 -0.062462 0.249724 -0.011556 -0.002022 
-0.029917 -0.013099 -0.274890 -0.041145 0.245071 -0.027338 
0.019354 -0.023781 -0.281714 -0.000471 0.005187 -0.249946 
0.076420 -0.001509 0.188823 0.044615 0.245165 0.020087 
-0.022504 -0.006362 0.272684 -0.232695 0.005030 0.091257 
-0.127419 -0.027686 -0.139272 -0.063529 0.239700 -0.031746 
0.055380 -0.003753 -0.170983 0.071719 -0.235754 -0.042149 
0.030505 -0.006724 0.232542 0.249951 0.004940 -0.000526 
0.027608 0.016373 0.187844 0.184102 0.168442 0.015295 
0.013455 -0.008990 -0.424965 0.067610 -0.239896 -0.019465 
0.210560 0.000666 0.034519 -0.000153 0.249715 0.011933 
-0.120331 -0.015948 0.255704 0.043570 -0.246171 0.001253 
-0.036592 0.007078 0.173684 -0.118463 0.219577 0.015896 
0.043109 -0.003183 0.251767 -0.053551 -0.240965 0.039599 
0.119237 -0.026448 -0.121441 -0.060321 0.242107 -0.015664 
-0.041372 -0.027691 -0.262313 -0.237416 -0.078304 0.001497 
-0.118241 -0.057568 0.002465 0.066638 -0.240632 0.012477 
-0.183272 -0.004893 0.049796 -0.002397 -0.249968 0.003225 
-0.111448 -0.026579 -0.007554 0.210952 0.134060 -0.005211 
0.258459 -0.004391 0.023620 0.003659 -0.249969 0.001400 
-0.116845 -0.018695 -0.032307 0.244932 0.050038 -0.002070 
0.018689 0.045831 -0.258307 0.224731 0.098696 0.047490 
-0.033023 -0.029540 0.043191 -0.181699 -0.169886 0.024984 
-0.056623 -0.004676 0.193947 0.012573 -0.249644 -0.004469 
0.003531 0.065276 0.152924 0.249991 0.001881 -0.000909 
-0.000129 0.049655 0.101159 -0.054040 0.235063 -0.065766 
0.193053 0.001878 -0.006175 0.003528 0.249967 0.002084 
-0.000720 0.052348 -0.334629 -0.021661 0.232354 -0.089679 
0.121600 -0.059998 -0.039308 -0.045036 -0.245709 0.009934 
-0.112022 -0.007146 -0.058633 0.052750 -0.244371 -0.000412 
0.107326 0.003334 -0.039516 0.003013 0.249960 0.003296 
0.022117 0.022335 0.122751 0.120770 0.218870 -0.003227 
0.016955 -0.047925 -0.020231 0.077819 -0.236115 0.026347 
0.003531 0.061380 0.154572 0.249910 0.006667 -0.000500 
0.017695 0.023770 0.182534 0.107626 0.225402 0.010517 
-0.036375 -0.010315 -0.145734 -0.183426 -0.156940 -0.064999 
-0.100443 0.001698 0.010878 0.000439 0.249666 0.012910 
0.050991 -0.009256 0.014387 0.025437 -0.246579 0.032430 
-0.133890 0.002282 -0.003534 -0.000983 0.249864 0.008177 
-0.069715 -0.002995 0.099391 -0.192004 -0.160058 0.003978 
0.005255 0.038805 0.228253 0.249777 0.010551 0.000000 
0.032876 -0.045201 -0.161564 0.154987 -0.195826 -0.011463 
0.130429 -0.059027 -0.035038 0.082682 -0.235749 0.009288 
-0.118479 -0.010243 0.015624 0.192239 -0.148148 0.059969 
-0.002029 0.027585 0.224239 -0.122729 -0.217802 -0.000118 
0.083383 -0.006737 0.243530 0.041885 0.245845 0.017491 
0.062392 -0.014144 -0.027308 0.040138 -0.245393 0.025903 
0.048632 -0.003001 0.136267 -0.015842 -0.249478 -0.003132 
0.016641 -0.046418 -0.006333 0.077504 -0.236005 0.028191 
-0.037257 -0.016961 0.086926 -0.225203 -0.106279 0.022100 
-0.128418 -0.055746 0.027108 -0.063177 -0.239527 0.033694 
0.176233 -0.000101 0.045265 -0.001299 0.249384 0.017484 
-0.109223 0.002076 0.003027 -0.000106 0.249762 0.010917 
-0.140846 -0.005788 -0.069771 -0.016623 -0.248430 -0.022506 
-0.048112 0.014583 -0.005167 -0.104396 0.227129 0.003748 
-0.243937 -0.000876 0.061149 0.002428 0.249030 0.021863 
-0.007845 -0.029165 0.265907 0.068118 0.211117 0.115280 
0.022519 0.022143 0.131766 0.124985 0.216504 -0.002170 
0.111965 -0.054044 -0.002710 -0.162678 -0.189637 0.008596 
-0.097913 -0.004944 0.177448 -0.051173 0.244458 -0.011035 
0.034114 -0.000854 0.228286 -0.238992 -0.071943 0.014383 
0.030782 -0.013120 -0.272955 0.048135 0.244687 -0.017637 
-0.020879 0.045131 -0.277609 -0.233619 0.084484 0.028005 
-0.147007 0.002495 -0.048600 -0.008235 0.249738 -0.007931 
0.216218 -0.005167 -0.000507 0.004158 -0.249964 0.000991 
-0.026016 -0.027257 0.103463 -0.233204 -0.086706 0.024458 
0.139767 -0.006539 -0.054123 0.029505 -0.248212 -0.004526 
0.057773 -0.003871 0.087030 -0.016769 -0.249360 0.006186 
-0.084895 -0.002552 0.182446 -0.044477 0.245672 0.012929 
-0.040969 -0.009214 0.062738 -0.225855 -0.106151 0.014877 
0.003445 0.151270 0.229205 0.249723 0.008438 -0.008208 
0.147998 -0.016250 0.224650 0.065927 0.240393 0.019099 
-0.117391 -0.009701 0.203715 -0.041539 0.245901 0.017527 
-0.041203 -0.022519 -0.155418 -0.242659 0.059902 -0.005310 
0.003531 0.077610 0.204667 0.250000 0.000000 0.000000 
-0.022936 -0.022284 0.197925 -0.166379 -0.186187 0.012354 
0.033785 -0.044568 -0.161295 0.161900 -0.190199 -0.010624 
-0.068052 -0.000464 0.201995 -0.072074 0.239295 0.006578 
0.098852 0.003049 -0.080173 0.010019 0.249533 -0.011541 
-0.114440 -0.010675 0.223350 -0.041220 0.245902 0.018253 
0.117700 -0.022948 -0.073300 -0.220837 0.117008 -0.006353 
-0.062009 -0.003953 0.116851 -0.021376 -0.249085 -0.000054 
-0.023178 0.025264 -0.341428 -0.211343 0.130712 -0.027352 
-0.087100 0.000397 -0.118972 -0.053392 0.230409 -0.081000 
-0.035819 0.017983 0.045076 -0.103116 0.227049 0.017768 
0.120957 0.003173 -0.044190 0.004370 0.249961 0.000363 
0.004563 0.047393 0.214455 0.248750 0.024964 0.000000 
0.107999 -0.032608 -0.029831 -0.224609 0.109716 -0.003629 
0.167549 -0.005897 -0.009729 0.002588 -0.249949 0.004324 
-0.019649 -0.026789 0.157355 -0.243902 -0.049505 0.023681 
0.005255 0.037888 0.207708 0.249862 0.008312 0.000000 
0.066567 0.005810 0.080161 0.150182 0.199624 0.009791 
-0.117285 -0.015012 0.004283 0.248805 -0.009413 0.022531 
0.003768 -0.007934 -0.455815 0.022094 -0.247285 -0.029359 
0.043364 -0.017019 -0.010273 0.214108 -0.127673 0.018901 
0.142487 -0.038427 -0.118925 0.236721 0.079993 -0.008032 
-0.081504 -0.006030 0.040450 -0.002678 -0.249948 0.004361 
-0.100984 -0.012540 0.196593 0.043205 -0.246238 -0.000023 
-0.134345 -0.000116 0.042330 0.001359 0.249357 0.017867 
-0.018247 0.050914 -0.308677 -0.184165 0.167121 -0.025567 
-0.063658 -0.012732 -0.018263 -0.061089 -0.240994 0.026267 
0.024926 -0.002789 -0.213159 0.082349 -0.234009 -0.030963 
0.079547 -0.008545 0.247042 -0.043664 -0.246156 -0.000818 
0.131446 -0.017809 -0.033787 0.247146 0.037645 -0.001246 
-0.241865 -0.001672 -0.019919 -0.132983 -0.023861 -0.210348 
0.069828 -0.006227 -0.128857 0.149356 -0.194670 -0.047923 
-0.100920 -0.010061 0.246072 -0.042051 0.245735 0.018599 
-0.136635 -0.057722 -0.112876 -0.165927 -0.186981 0.002582 
0.009382 0.019079 0.212106 0.082939 0.233718 0.031570 
0.102128 -0.003480 0.076606 0.001339 0.165453 0.187413 
-0.019682 -0.010527 -0.233602 -0.099508 0.226852 -0.033710 
0.116305 -0.060609 -0.096843 -0.107674 -0.225422 0.009565 
-0.062226 -0.012119 -0.114119 -0.084245 -0.231873 -0.040469 
0.003531 0.067106 0.163098 0.250000 0.000000 0.000000 
0.040450 -0.002447 0.129420 0.132485 -0.211883 0.007293 
-0.135363 -0.058412 -0.133961 -0.163105 -0.189089 -0.011922 
-0.137466 -0.013357 0.207641 -0.041826 0.245942 0.016221 
0.111265 -0.056952 -0.134472 -0.185576 -0.166865 -0.014755 
-0.117416 -0.015200 0.005266 0.248705 -0.004804 0.024955 
0.106528 -0.035196 -0.002851 -0.239481 0.071668 -0.003525 
-0.090988 -0.000929 0.050080 0.001292 0.249316 0.018437 
0.263330 -0.004100 0.042770 0.002433 -0.249970 0.002994 
0.047446 0.009240 -0.238467 0.185803 0.165568 -0.023758 
0.042228 0.002172 -0.282714 0.226777 -0.104113 -0.015249 
0.144920 0.002740 -0.038895 0.005372 0.249933 -0.002173 
-0.099395 -0.002367 0.068840 0.000111 0.248548 0.026906 
-0.137570 -0.019000 0.206826 0.043444 -0.246196 0.000330 
-0.032263 0.002783 0.214058 0.216480 0.118473 0.040008 
-0.123367 -0.009895 0.189119 -0.046948 0.245552 0.000293 
0.131430 -0.017769 0.203573 -0.043393 -0.246205 0.000008 
-0.066324 -0.000194 0.206399 -0.075634 0.238212 0.005888 
0.111797 -0.011136 0.237536 0.041703 0.245807 0.018435 
0.011470 -0.028845 0.188045 0.070116 -0.239943 0.003372 
0.003314 0.050581 0.240515 0.245424 0.042308 0.021846 
0.061941 -0.014649 -0.031573 0.035030 -0.246318 0.024500 
0.034197 -0.043863 -0.164951 0.165182 -0.187279 -0.011895 
0.002567 0.072053 0.244853 0.225340 -0.042587 0.099540 
0.030168 0.022212 -0.281329 0.187131 0.165378 -0.011496 
0.005255 0.029088 0.188290 0.212470 0.131703 0.003303 
0.054011 -0.010450 -0.136737 0.047590 -0.241021 -0.046304 
-0.002444 -0.030404 0.204579 -0.021206 -0.249029 -0.005922 
-0.126331 -0.023799 0.047121 -0.045355 0.243617 0.033069 
-0.060337 0.002427 0.170962 -0.053452 0.243939 0.011685 
-0.111159 -0.026859 -0.007628 0.211327 0.133468 -0.005243 
0.080757 -0.003895 -0.121579 0.046520 -0.234177 -0.074143 
-0.117935 -0.025352 0.052423 0.103244 0.224389 0.038606 
-0.067788 -0.014766 -0.077505 -0.147638 -0.201570 -0.008511 
0.003531 0.136778 0.237832 0.250000 0.000000 0.000000 
0.003531 0.065818 0.175236 0.250000 0.000000 0.000000 
-0.043753 0.009810 -0.253242 -0.195797 0.153111 -0.026844 
-0.056179 -0.014413 -0.028252 -0.014144 -0.248177 0.026612 
-0.083560 -0.009351 0.230550 0.043378 -0.246208 -0.000409 
0.068194 0.005240 0.081196 0.172751 0.180503 0.008718 
0.035887 -0.043927 0.128550 -0.176776 -0.176777 0.000000 
0.134777 -0.006531 -0.026475 0.117629 -0.220569 0.003552 
0.125496 -0.053557 -0.191736 0.024200 -0.239242 -0.068392 
-0.080156 -0.007745 -0.069996 -0.004489 -0.249959 0.000644 
0.129337 0.003006 -0.046736 0.005443 0.249932 -0.002074 
-0.149062 -0.006395 -0.030248 -0.003765 -0.249964 0.002008 
-0.076146 -0.007061 0.261981 -0.033328 0.244304 0.041288 
-0.003218 0.032453 0.064208 -0.191099 0.161156 -0.003154 
-0.161739 -0.001447 0.061620 0.000872 0.248813 0.024311 
-0.100717 -0.007101 -0.039171 -0.002458 -0.249943 0.004724 
-0.117180 -0.010655 0.005175 0.228621 -0.098681 0.022235 
0.040436 -0.031487 -0.038639 0.222561 -0.113210 0.012248 
0.118579 -0.010627 0.011622 -0.217478 -0.116697 0.039814 
0.039858 0.019205 -0.143215 0.151974 0.198451 -0.004565 
-0.241761 -0.004225 0.060236 -0.002319 -0.249955 0.004129 
-0.230866 0.001188 0.011763 -0.003381 0.249967 0.002315 
-0.026908 -0.000144 -0.430807 -0.222141 -0.102631 -0.051191 
-0.026450 -0.035345 0.133951 0.166090 -0.186849 0.001240 
-0.277590 0.000026 0.049107 -0.069067 0.240023 0.010887 
0.035517 -0.043557 0.103818 -0.170008 -0.182992 -0.010542 
0.039384 0.018897 -0.167103 0.153195 0.197442 -0.006918 
0.002652 -0.056454 -0.103570 0.010171 -0.249744 0.004937 
0.179618 -0.001019 0.057655 -0.001015 0.249155 0.020510 
-0.010293 0.020541 0.232959 -0.086043 0.233569 0.023280 
-0.090962 -0.004451 0.193192 -0.041474 0.245772 0.019393 
-0.131963 0.002885 -0.050199 -0.006707 0.249868 -0.004580 
0.174208 -0.005264 0.018309 0.002147 -0.249956 0.004169 
0.003531 0.083262 0.227151 0.250000 0.000000 0.000000 
0.038224 0.020409 -0.148566 0.156835 0.194630 -0.004683 
0.119544 -0.060589 -0.070784 -0.075323 -0.238265 0.007510 
-0.111447 0.002678 -0.012783 -0.001065 0.249872 0.007947 
0.248866 0.000405 -0.005837 0.019481 0.246978 -0.033500 
0.114902 -0.012302 0.246049 0.042035 0.245697 0.019137 
-0.110660 -0.006711 -0.025090 0.082613 -0.235893 0.005446 
-0.154667 -0.004982 0.058118 -0.002046 -0.249880 0.007454 
-0.273921 -0.003289 0.072741 -0.002152 -0.190949 0.161350 
0.031873 0.024655 -0.200024 0.168924 0.184189 -0.006250 
-0.026008 -0.005096 -0.184467 -0.079610 -0.235555 0.026001 
0.031079 0.027840 -0.047835 0.150380 0.199536 0.008440 
0.034062 0.025641 -0.069296 0.160641 0.191548 0.001961 
-0.041427 -0.029576 -0.175204 -0.248400 -0.027071 -0.008043 
0.141842 0.002429 -0.055965 0.009688 0.249592 -0.010480 
-0.011268 0.019786 0.235122 -0.094910 0.230006 0.024276 
0.142591 0.002689 -0.046649 0.007172 0.249841 -0.005302 
-0.111461 0.001578 0.013559 0.000412 0.249670 0.012843 
0.049495 -0.003052 0.097730 0.002023 -0.249934 0.005349 
0.094364 -0.008907 0.247605 0.042118 0.245740 0.018388 
0.083009 0.003633 -0.079729 0.008293 0.249761 -0.007109 
0.034259 -0.044356 -0.150210 0.170049 -0.183079 -0.008081 
0.126482 0.001539 -0.082129 0.018384 0.247913 -0.026477 
0.015595 0.039322 -0.137391 0.105847 0.226483 0.001317 
-0.027910 -0.019176 0.169312 -0.186104 -0.166403 0.013233 
-0.026832 -0.013356 0.216018 -0.243321 -0.057184 -0.005006 
-0.123119 0.003061 -0.053271 -0.006339 0.249890 -0.003863 
-0.041490 0.014801 -0.209838 -0.149476 0.200146 -0.009918 
-0.089418 0.002953 -0.089349 -0.011028 0.249395 -0.013445 
0.075213 -0.007744 0.212832 -0.056351 -0.243565 0.000844 
-0.068744 -0.004683 0.086417 -0.148758 -0.200881 0.004220 
-0.096117 -0.005821 0.044143 -0.002268 -0.249937 0.005123 
-0.130591 -0.010800 -0.012058 -0.236338 -0.081443 0.003374 
-0.107278 -0.050703 -0.029555 0.216427 -0.125060 0.004403 
0.062345 -0.004120 0.090135 0.013807 -0.249567 0.005067 
-0.023046 0.029845 -0.322028 -0.239563 0.069444 -0.016946 
-0.119398 -0.055357 -0.178033 0.093222 -0.223639 -0.061608 
-0.105967 -0.041274 0.020006 0.246934 -0.033121 0.020648 
0.080109 0.003621 -0.040823 0.002090 0.249934 0.005334 
-0.112097 0.002825 -0.018107 -0.001450 0.249899 0.006944 
-0.014136 0.024419 0.093544 -0.083657 0.235587 -0.000354 
-0.130429 -0.021597 -0.080436 -0.232403 0.091122 -0.013623 
-0.099001 -0.001974 -0.115003 -0.095287 -0.181549 -0.143040 
0.041739 0.013114 0.080366 0.080660 0.235868 0.018977 
0.073815 -0.004456 0.234085 0.064629 0.240840 0.017862 
-0.001872 -0.010017 -0.432476 -0.012108 -0.249089 -0.017545 
-0.082546 -0.006131 0.031480 -0.002717 -0.249977 0.001981 
-0.028023 -0.011042 -0.202821 -0.163109 0.187457 -0.027479 
0.003900 0.031146 0.053885 0.181504 0.171803 -0.006320 
0.109540 -0.055301 -0.129828 -0.202934 -0.145617 -0.010640 
-0.007239 0.058398 -0.301709 -0.073833 0.238425 -0.014214 
-0.002676 0.105237 0.226027 -0.250000 -0.000000 -0.000000 
0.122199 0.003118 -0.051821 0.005798 0.249918 -0.002719 
0.052818 -0.004528 0.199635 -0.012116 -0.249662 -0.004708 
0.006692 -0.049142 -0.200552 0.022174 -0.245950 -0.038947 
-0.019183 -0.004431 0.277027 0.230097 -0.038989 -0.089639 
-0.069715 0.004350 -0.073390 -0.061833 0.242186 -0.004788 
-0.062466 -0.004571 0.076787 -0.043830 -0.245752 0.013590 
0.076536 -0.007976 0.262599 -0.051582 -0.243360 0.024808 
-0.073120 -0.002123 0.064935 -0.090734 0.231697 0.024159 
0.118076 -0.007779 0.009603 -0.187436 -0.163996 0.021754 
-0.031303 -0.033688 0.026816 -0.166531 -0.184668 0.025796 
0.065762 0.007891 0.026360 0.125039 0.216449 0.003920 
-0.108281 -0.002880 0.073334 -0.002072 0.228328 0.101793 
0.205991 -0.004412 0.062074 0.001480 -0.249061 0.021600 
0.010873 -0.007815 -0.447161 0.064597 -0.239892 -0.027913 
0.000572 0.051628 -0.227901 0.001272 0.243370 0.057178 
-0.125684 -0.011874 0.214275 -0.041138 0.245917 0.018238 
-0.024251 -0.047004 -0.044785 -0.118180 -0.219313 0.020867 
-0.041756 -0.026478 -0.232475 -0.246351 -0.042504 0.002111 
0.094459 -0.004035 0.181128 0.046926 0.245518 0.004333 
-0.105207 -0.037412 0.012948 0.248463 0.025332 0.011159 
-0.121169 -0.012071 0.021470 0.116728 -0.167440 0.144355 
0.220346 -0.003980 0.070933 0.002016 -0.247875 0.032467 
0.029976 -0.036260 0.133275 0.176777 0.176776 0.000000 
0.201033 -0.005413 -0.002885 0.003435 -0.249964 0.002474 
-0.105499 -0.044521 -0.027253 0.245462 -0.047372 0.002020 
0.104084 0.002582 -0.009352 0.000707 0.249836 0.009039 
-0.020166 -0.001657 -0.448849 -0.197510 -0.140725 -0.060717 
0.024815 -0.003429 -0.277499 0.037412 -0.246880 0.012272 
0.191706 0.001621 -0.030702 0.010831 0.249426 -0.013023 
0.059843 -0.005954 0.047169 -0.008814 -0.249122 0.018994 
0.003531 0.067646 0.208044 0.250000 0.000000 0.000000 
-0.025394 0.031305 -0.056463 -0.129932 0.213292 0.011130 
0.038313 0.019104 0.018355 0.117325 0.220323 0.013878 
-0.032892 0.025745 -0.055162 -0.152905 0.197721 0.005120 
0.132355 0.002932 -0.047095 0.005802 0.249915 -0.002918 
-0.134533 -0.026457 0.037841 -0.164565 0.185732 0.030360 
-0.168925 -0.005144 0.032933 -0.002661 -0.249980 0.001742 
0.042222 0.016947 0.020934 0.108403 0.224996 0.011195 
0.225274 0.000725 0.033534 0.000344 0.249798 0.010043 
-0.006287 0.018025 -0.432321 -0.037639 0.240064 -0.058761 
-0.082675 0.003836 -0.059652 -0.004016 0.249966 0.000905 
0.016464 0.024770 0.172347 0.096635 0.230439 0.007712 
-0.051588 0.010868 -0.152643 -0.126270 0.215574 -0.009147 
0.013975 -0.008592 -0.428919 0.074085 -0.237737 -0.022191 
0.180010 -0.004655 0.062402 0.002951 -0.249682 0.012264 
0.123144 -0.014202 -0.096826 -0.029845 0.162852 -0.187319 
0.003531 0.092121 0.246328 0.249714 -0.004606 0.011024 
-0.001789 -0.008122 -0.293146 -0.017606 -0.249134 0.011057 
-0.085922 0.001691 0.010505 0.000598 0.249635 0.013503 
-0.066710 -0.000196 0.203069 -0.070935 0.239638 0.006480 
0.134885 0.002528 -0.011870 0.001614 0.249909 0.006539 
0.018766 0.037427 -0.167808 0.143170 0.204908 -0.003902 
-0.123759 -0.000920 0.052333 0.001363 0.249267 0.019077 
0.113406 -0.037756 0.062671 -0.164317 -0.011961 0.188034 
-0.039239 -0.035646 -0.186971 -0.218200 -0.121799 -0.007345 
-0.034771 -0.007440 -0.163705 -0.057252 -0.237374 -0.053628 
0.006536 0.034163 -0.366927 0.073919 0.207151 -0.118846 
0.117937 0.002058 -0.081994 0.014738 0.248825 -0.019213 
0.110023 0.001719 -0.092414 0.018070 0.248218 -0.023695 
0.040128 -0.018590 -0.229889 0.209171 0.136805 0.005635 
-0.004238 -0.043377 -0.277676 -0.012987 -0.249377 -0.011947 
-0.128971 -0.059868 -0.054654 -0.072896 -0.238975 0.008773 
0.100050 0.001624 -0.101095 0.017823 0.248164 -0.024435 
-0.142527 -0.006021 -0.005848 -0.001888 -0.249927 0.005738 
-0.134361 0.000175 -0.087619 -0.043120 0.238127 -0.062739 
-0.240507 0.000089 0.046980 0.000629 0.249610 0.013946 
0.118014 -0.013456 0.002323 -0.246635 -0.036440 0.018531 
-0.037115 -0.046010 0.130818 0.173803 -0.179700 0.000695 
-0.051066 0.002216 -0.222749 -0.220718 -0.109348 -0.042740 
0.026184 0.031015 -0.047483 0.125312 0.215953 0.012689 
-0.127324 -0.000656 0.049084 0.001379 0.249293 0.018733 
-0.049276 -0.001776 -0.193959 -0.063158 -0.240160 -0.028882 
0.004120 0.042305 0.105603 0.244800 0.048772 -0.013931 
0.034385 -0.042425 0.142579 -0.176777 -0.176777 -0.000000 
0.270855 -0.003923 0.053176 0.002475 -0.249986 0.001075 
-0.034075 0.010312 -0.342804 -0.232032 0.092275 -0.012097 
0.012521 0.056898 -0.292205 0.118550 0.220059 0.004479 
0.120538 -0.026869 -0.128692 -0.051578 0.243678 -0.021468 
0.054634 0.006797 -0.198647 0.193308 0.155966 -0.028402 
-0.116568 -0.008515 0.186593 -0.047783 0.245390 -0.000697 
-0.002653 0.066200 0.144391 -0.249940 0.003918 -0.003829 
0.058137 -0.015152 -0.104257 0.051589 -0.242360 -0.033170 
0.082135 0.003568 -0.039147 0.002032 0.249932 0.005481 
0.043185 -0.024654 -0.077492 0.226372 -0.106092 -0.000347 
0.031261 -0.037545 0.149228 0.177172 0.176374 0.001494 
-0.122796 -0.015689 0.173938 0.034974 -0.246391 -0.023836 
-0.060543 -0.003853 0.119841 0.001550 -0.249995 -0.000504 
0.120934 0.001486 -0.087100 0.019865 0.247702 -0.027364 
0.135236 -0.018234 0.188996 -0.041183 -0.246479 -0.007198 
-0.006372 0.042623 -0.351996 -0.082858 0.204578 -0.117399 
